ply
format ascii 1.0
element vertex 718
property float x
property float y
property float z
property uchar red
property uchar green
property uchar blue
end_header
-1.1568197067806179 -0.8292078301682618 14.813616761714343 134 122 142
-2.0909270619460516 -3.6410541759986543 20.082053582827058 168 165 176
-2.3411254001630897 -1.9138260430754146 17.27516452625233 175 172 155
0.3761536104038462 -3.365364513025348 23.829680261782624 38 27 57
0.6848645945426804 -4.508793482700662 26.524112452507765 92 72 97
1.2971607681174124 -2.204391834822709 24.385029091561872 96 93 124
-1.073710377180678 -4.732482630746691 23.28296843432987 142 153 183
-0.6383969890940173 -1.6994190279908945 19.780179838318503 156 175 217
-0.014113210957409847 -3.190007813131686 23.64087281518777 162 159 150
-1.4179986150946173 -3.729810848843575 21.524330975367317 128 148 198
-0.90513203216461 -2.985914415532538 21.544748931333423 63 74 119
-0.103444315493381 -4.218893864301296 24.70022048796829 25 23 36
0.31881159334225323 -3.0201641676696345 23.707813019845045 72 62 63
-3.0371688437640727 -2.050600060762195 15.814800615916388 45 66 109
-1.9922420500813058 -2.825670452011805 19.1383225926098 121 116 110
1.5707161742280653 -2.7866577681236184 25.855041335635423 141 134 124
0.39166927590017664 -3.0657014016665167 24.110561339307587 77 67 65
0.4359981270872683 -3.155306152837852 24.372153786897346 110 122 160
-2.3647808368039755 -1.9223893488475683 17.215471847583366 91 84 76
1.6278272164370806 -2.800797559554856 25.91856725728061 92 82 90
-2.391910220330069 -2.390900978433946 17.825584992929898 112 108 96
-1.217885906617564 -4.471983875397101 22.734838058308636 68 70 108
0.3936876502518261 -3.2041787792121204 23.989284753150162 63 65 88
-1.2244590219073448 -4.442194578660929 22.624357811542104 97 86 116
-0.20216401824025304 1.0431651430517632 4.000209865307444 0 0 0
-0.12193093265373352 -0.9358092113513286 18.23333872640337 0 0 0
1.2097232799455253 -0.19760662075654492 16.044090622671153 101 112 142
-0.12193093265373352 -0.9358092113513286 18.23333872640337 0 0 0
0.9483654561642187 -0.37489144660310963 16.552115654996374 78 88 115
0.7830509729824315 -0.30918990534899293 16.265406603924163 110 115 145
1.2809281501806362 -0.2526317243887158 16.227585869236687 37 40 47
1.319609363702284 -7.405497286338349 28.808190207482397 71 54 60
-0.1700993605772266 -1.8213385194545073 19.117907906958557 47 61 98
-0.426149427493452 -0.872638296750817 17.25848227151888 0 0 0
-0.1911663840914985 -1.1316090207704264 17.90206369347851 20 23 38
-0.426149427493452 -0.872638296750817 17.25848227151888 0 0 0
-0.2821011611166664 -1.9418248093390016 19.25034907456819 121 136 179
0.7824829789825659 -0.3623228519319723 16.357866662618463 0 0 0
-1.1852615566136917 -0.5036534235283086 16.614297158829928 93 107 133
-1.070442997921832 -0.15346564341952282 15.809402784719937 72 76 103
-0.28873085603545096 -1.9997825266583071 19.16315323698326 0 0 0
1.7243250616259487 -7.9688343075721955 30.211186409885602 123 123 125
0.008849463334605982 -1.193135572472165 18.45872689183526 0 0 0
-0.5386971886907899 -1.0633733807047792 16.970864474730607 0 0 0
-0.7367461159211987 -1.7729731952126313 19.66815848019087 0 0 0
0.7325717709592743 -0.28494456683382025 16.201083022668165 118 113 136
-0.5841030835425353 -4.327204310241845 22.24168337249959 0 0 0
-0.398464026306976 -1.3308114435523086 12.973216376509042 106 103 122
0.151859844614911 -1.432638846598942 19.017219701024636 141 160 200
-0.8039244751634594 -0.3997731533462899 3.811922004331091 36 49 84
-1.0796288019856553 -8.011763914394555 22.77230340594339 40 32 47
-0.1045644827421264 -1.0574281632058766 17.497425327049015 19 20 51
-0.1045644827421264 -1.0574281632058766 17.497425327049015 19 20 51
-0.23678231686625165 -1.032574465696925 16.59240658430718 0 0 0
-0.2719176427279933 -1.158569473976058 16.846887120521593 0 0 0
1.094978149014638 -0.2693585903199192 15.057772548565673 56 62 86
-2.9824813847012934 -5.650638838005053 17.0190386686465 84 106 153
-0.4873657497052483 -1.0593447001027094 16.03695831814637 140 158 204
1.094978149014638 -0.2693585903199192 15.057772548565673 56 62 86
-0.6198160164625314 -3.8752079455922557 20.203466587753784 70 62 59
-0.5564039575764501 -0.9576288984703901 15.870982985121938 147 167 202
2.5864115442834326 -1.3007916158569799 8.618899169148706 0 0 0
-0.08136126385060341 -4.3782717872607915 21.748000599188632 95 77 99
0.9145086418376007 -0.20719799998158758 14.839122781461914 44 45 65
-0.5851388155388263 -3.7788148613059325 20.108687885173648 153 146 136
-0.871016055907912 -1.9632430157839 17.199166075629595 0 0 0
0.5942855829571406 -2.4065427733230713 20.12097157856323 0 0 0
-0.6143267606855991 -2.2082211497174544 17.959344863173573 0 0 0
-0.5699094516607353 -1.6292641619623252 17.08713802423474 0 0 0
0.4431649917203533 -0.7026663438368437 2.5333175574011726 80 91 123
0.8067843009320038 -0.48319613008528234 15.387508600431918 0 0 0
-0.4823624568617582 -1.1801350131589106 16.229167845961253 0 0 0
0.779569299541963 -0.23646702872318656 14.812757332114742 59 62 81
-1.532399443734524 -0.2521860877748924 17.108592315008178 0 0 0
-0.5849268569010763 -3.859475537830081 20.218333328145356 0 0 0
-0.3672857926109952 -1.0105383441051357 16.39530713235474 139 157 203
-0.5347063901844039 -2.1659711197389955 18.084512668422636 36 44 81
-0.8860683377104271 -1.6447891727645327 16.81754535046937 0 0 0
-2.0988386642978556 -6.6777564016671125 19.639698704360086 122 121 127
-0.49419374139007555 -2.2388272248040852 18.256834409755974 0 0 0
-0.9460988416330703 -1.7931125505953578 16.82001437624042 0 0 0
0.10452398875715392 -2.0194296435487047 5.835782566353434 0 0 0
-5.224234446300683 3.2649313782393676 14.764606686304436 0 0 0
3.0839748293531795 -3.2542261609910432 -3.9735934253065124 25 35 62
-3.880892466246938 -3.5507912362677136 17.1851151240074 128 142 181
-5.289136842623358 -3.084981218458122 13.352270282065318 135 154 194
-0.3734375477805081 -1.1205190808911971 18.01894000897359 144 165 210
-0.9427866440481208 -1.3498462389524502 17.733754704484973 78 83 123
-5.170302835356871 -3.336813392408349 13.638139962151277 82 96 141
-4.50582508409814 -3.389363535381976 15.547649769177188 129 138 177
0.9672091111499984 -0.6394899912858132 13.339565836600624 48 54 78
0.9753899544190743 -0.6896722769077015 13.961332555792673 48 54 80
-1.680387078211418 -3.3999843780342935 21.513898573308673 0 0 0
3.602420837692775 -2.9101185878070397 13.130216376106116 77 94 146
-5.304488589522139 -3.057311555766475 13.309847761653058 63 76 111
-3.8208976940217996 -3.268442444745984 17.090089694754592 0 0 0
-5.256341127153798 -3.364681173271403 13.477265343850641 78 89 134
-3.8652016677399357 -3.234786424328034 16.9817595427814 116 132 166
-3.8501674765780494 -3.277162632422202 17.030964163178073 68 79 124
4.550043794079407 -5.0328104739009385 -9.590069238487622 52 65 109
-5.574477541766568 -2.5437839154031003 12.497285605800258 126 130 159
-0.6257367815044411 -1.1620874797016136 17.410593373621964 142 163 210
-0.7689526607688948 -1.0132871832571761 16.762319453392152 143 161 207
-3.1974915647757953 -3.956686019205712 19.07406510476965 0 0 0
5.303743319523106 -2.6803853258162214 -18.897160061192825 218 238 255
-0.742691756120057 -1.151001648786139 17.35865469292344 20 22 35
-0.7689526607688948 -1.0132871832571761 16.762319453392152 143 161 207
-0.829680945987803 -1.443189055704507 18.306573914105137 128 143 182
-3.9388039070181553 -3.5118317108916046 16.996079274796386 0 0 0
-5.307025768232676 -2.9195991558288013 13.25756383470345 127 129 150
-0.9652061552517713 -1.2245871530624703 17.281698257260896 145 166 211
-0.7154147660232915 -1.0339423709236795 16.8712985961701 0 0 0
-1.4696760239418598 -3.302065660063457 21.876180795743046 0 0 0
-0.4559188012222293 -0.9056599200237244 16.179265749657944 144 164 214
-0.29399624672337116 -0.9175486108138711 17.341832092358228 144 165 212
-3.7937570202539708 -3.852475830830297 17.615672658498774 0 0 0
-4.50582508409814 -3.389363535381976 15.547649769177188 129 138 177
-0.4559188012222293 -0.9056599200237244 16.179265749657944 144 164 214
-2.1634284792942466 -3.0445148758342464 19.951363693861182 37 45 81
-1.4058464836293139 -3.2634315456038068 21.895301974127683 0 0 0
-0.3669086635397942 -1.0170660846025912 17.82360181153529 147 168 215
-0.13210085586438097 -0.9249450555336465 17.458504994866765 0 0 0
-5.150671932461936 -3.3418778609962403 13.793306472926822 86 98 140
0.9919492844650242 -0.547945916284381 12.957535013165108 94 105 137
-0.6801379046066433 -0.8787960073246496 16.40486468966292 17 16 56
-0.9871936884105362 -2.2777668146456924 20.53572992364741 98 80 92
-0.4490670310965212 -1.3939616404084325 18.76079254692671 0 0 0
-0.37153483905778023 -0.9791901824363696 16.581814178709013 139 157 203
-5.3657160179762515 -3.076681480844527 13.082578225322397 65 77 119
-1.1936523724368904 -4.178936152886849 24.1336461936611 0 0 0
-1.0535027830682986 -1.5361583851191893 18.15803837565088 0 0 0
-5.503774467837546 -3.0817810694148524 12.687144518011303 67 84 130
-1.1186424871698633 -1.5537717725042097 18.151853786473005 148 163 204
-5.592821942224518 -2.5835021468349972 12.4849449091042 75 76 107
-2.2535861492709985 -2.97342977891626 19.68763256156911 52 65 107
-0.6801379046066433 -0.8787960073246496 16.40486468966292 17 16 56
-0.9141860590398947 -1.7126941063225736 18.860148715872977 0 0 0
-1.205027324120675 -2.576695111070187 21.245252806746073 41 27 27
-4.12498455123635 -3.7133155454171427 16.637722738472018 0 0 0
-1.5812029550503068 -3.027915383524408 21.09998527803326 0 0 0
-1.6212380087250609 -3.008964344423746 20.994595851698378 50 43 50
-1.757214647521341 -3.449059331102473 21.55012314282649 139 140 144
-0.1681205247049489 -0.9159553269069171 17.226008867402197 0 0 0
-5.316199265051014 -3.2843187656985546 13.093877306503991 90 108 158
-5.729940641342324 -2.629236263052549 12.101949080057395 89 105 154
-5.412256932037196 -2.890464321024847 13.066213376554282 68 80 120
0.14416145776289135 -2.3486203212318886 10.933026889396285 146 165 205
-2.363090895947919 -2.781349664648005 19.187043650066805 117 112 106
-5.252777524651341 -2.828211313711073 13.41091652424048 119 136 179
-5.705997928711468 -2.693432717810112 12.240714143088708 128 147 190
-5.128416597350514 -3.6732085127975407 13.923799661696732 45 35 59
0.6762022100648054 -3.3772149127650315 17.425216979711436 117 118 113
-2.2842874660705923 -2.9494994749504353 19.645218265380127 88 102 131
-2.046905473208728 -4.03797708682637 21.945212570086632 0 0 0
-2.078721912482983 -3.3462147217552527 20.73087152907124 64 54 52
-5.341159301844365 -2.9848712093302945 13.238168774745667 128 142 181
-1.7188091497943887 -0.48122210404048066 16.924346037096786 43 32 40
-5.619777265735465 -2.6161825703489745 12.453077175863314 125 139 176
-0.6722164053803849 -2.616005283064422 21.929317354121988 39 27 31
-1.3421528510320413 -2.19181133890841 19.752060771746656 0 0 0
-5.4380445473718275 -2.692359689780012 13.0168254662252 65 76 121
-1.183167539306319 -0.23248054253467584 15.005285493131476 65 67 92
-1.7448120229565964 -3.420691595659413 21.24242010353326 72 74 89
-0.38527974495895984 -1.422873475784905 18.972306590021503 0 0 0
-4.056651763889807 -3.5459209073721274 16.718208377315506 0 0 0
-2.1837441861740436 -2.9462194258664742 19.750171567450835 99 115 149
-0.9902854539853276 -1.4383929380124207 18.217005900208367 0 0 0
-5.385383993734339 -2.863051337352347 13.123167895389788 67 79 117
-0.8172437401828859 -1.521632663784932 18.589395730128423 138 156 194
-1.6416742782738485 -3.09534208864913 21.081162162267244 0 0 0
-1.2683338355324596 -2.2685418108623656 19.979328642639633 50 45 52
-1.9501871341171317 -3.1232925396239803 20.65939100547986 0 0 0
-1.4921225514630498 -3.0817352304836416 21.246074016653782 0 0 0
-1.0910442314581288 -1.7720628852604774 18.84713848465763 138 156 194
-5.506701715043153 -2.841728021504145 12.631620275694765 93 86 104
-5.543211948617122 -2.6848327503382468 12.613897009407243 133 137 164
-2.1015275997002165 -3.011049054686244 19.92179808516672 100 115 148
-5.3712810770081925 -2.7506287579777235 13.236770772163009 70 79 120
-1.8822656289668434 -2.89266813552123 20.136578380600177 122 118 107
-2.332958819605231 -4.228444273584401 21.582554509876662 148 148 186
-1.551241581660819 -3.3145519745717533 21.719732411639992 0 0 0
-1.5625095012214667 -0.5075040066997815 16.51563152938629 0 0 0
-2.35878755326543 -4.02196532663462 21.171989134505292 0 0 0
-2.1686028441805894 -4.0316830004711415 21.695440432344203 0 0 0
-1.1705913010275533 -1.5789310156914584 18.16245453694929 50 58 105
-1.1705913010275533 -1.5789310156914584 18.16245453694929 50 58 105
-5.566908934187529 -2.6671356624405504 12.613248518590355 80 79 111
-1.9027124850203805 -3.2998345905004136 20.91770976167204 0 0 0
-1.8321253465265155 -3.4177952570192924 21.243587962086607 0 0 0
-2.0627584342289893 -3.1870248594825945 20.471521195950192 114 125 155
-4.107320414044284 -3.6678785070523903 16.746306036076327 0 0 0
-1.2788910793639483 -3.07333034637918 21.661842026287317 0 0 0
-1.529926119314084 -0.28437885169049015 15.871810461886303 62 67 89
-0.4539520198097961 -1.5025922815182962 19.134445181909527 0 0 0
-0.783593066261247 -2.4700967555847586 21.535376382718695 89 88 86
-2.141355414078853 -2.8170630218344526 19.594818989797727 0 0 0
-0.20315965567295957 -0.445341697797724 13.976021645921751 84 96 138
-1.5302410744080943 -2.9767779739008287 21.052839028564836 0 0 0
-3.5146113140516793 -3.114912539584995 17.361445032820647 75 60 79
-2.4016227161034505 -4.149080478325319 21.410754683331362 145 159 198
-2.178027250898095 -2.8135191502827763 19.578271954188025 113 113 125
-2.300110151520967 -4.089244562890894 21.430833233835664 24 22 35
-2.1657634025155867 -3.7396512062460183 21.246181554128704 0 0 0
-1.0561698824498507 -1.582712698925522 18.416789426574347 46 60 97
-2.452509757546583 -3.7864489747243946 20.716198097893013 0 0 0
-2.3337113792730992 -3.8986216942164855 21.630592717255947 0 0 0
-1.9482544919632483 -3.2113298568531468 20.630919658088434 113 124 156
-2.067631777995338 -2.853979360951255 19.581584145997038 69 65 79
-5.521433269015703 -2.717240216781869 12.694540557122606 79 92 127
-1.6050905179526935 -3.080063134832454 21.087651269633255 0 0 0
-1.5980873501415482 -3.2101408012055774 21.582625986328626 138 135 142
-2.0331226507567655 -3.069148487721713 20.300469929635813 134 148 185
-1.5442381375165088 -2.8891182114203 20.913384340667257 0 0 0
-1.438133306523694 -3.549006607996687 22.385669369424992 0 0 0
-1.7727355351917504 -3.9869729050543277 22.371810360121444 0 0 0
-2.359963115496736 -3.8934397824488887 20.963780851146744 49 36 56
-1.3155834332557286 -3.07160821753696 21.66484547528435 90 83 91
-1.4459121783363844 -2.8810553801840797 21.063799232809128 0 0 0
-2.3972274513342766 -4.201511182089191 35.73019097631035 106 99 93
0.1197766348171922 -4.169645114985059 24.165845425287714 0 0 0
-1.8264539709517387 -3.9835115939194434 22.377446240827727 0 0 0
-0.6570751242660767 -1.2415268905979897 17.800901244118673 0 0 0
-1.3457201648368884 -3.010999816263977 21.557402660458276 0 0 0
-0.24237345678045197 -7.891114235795947 -16.040280406531732 46 58 80
-4.392686926746443 -4.234327308806264 16.33225464411814 0 0 0
-3.4300176554126063 -3.268061979402689 17.70498423348272 67 79 117
-0.8472529200051069 -2.350733858705788 21.105813474810677 99 102 119
1.3562762783619093 -2.3654510061700273 -2.606175018400228 66 71 90
2.862534694866571 -2.1458632414973917 1.073751974214659 69 53 64
-3.7974072452160685 -3.404899980489387 17.227335441888687 131 149 195
-3.4316835416799294 -3.3590924204294614 17.81387014650335 90 102 150
-3.3947499909492196 -3.6492287265712364 18.103320688860595 0 0 0
-0.23446157634333645 -0.9578195534810211 18.09986071148799 143 161 199
-2.1700485502313116 -2.9536648894876434 19.684541292558457 99 115 149
-1.1462670996589914 -4.5345499534638325 24.06371103266911 149 164 207
-1.2206475961700367 -4.522048803153641 23.89383443395572 150 167 210
2.7863407048454754 -0.7437279415553977 7.658850648149962 67 75 114
0.611474063004758 -1.9784213354526305 23.25638100564246 135 129 117
-0.4562265526375639 -1.342973328897921 19.184241007969327 0 0 0
-1.1231598226584922 -4.184272239252763 23.78557563602611 69 66 59
-2.0118927351679807 -3.929583163947503 21.34287368255807 0 0 0
4.087959543721118 -2.619483042801526 -0.5946272785043364 59 64 96
-1.1491018999295317 -1.5182176309249493 18.52085951753994 148 163 204
-0.3696523702646022 -1.3997776452122503 19.576805677956592 128 143 182
-0.35535713994428153 -2.2755471678078614 21.898916598028187 0 0 0
-0.45361390787702555 -1.4198547870595493 19.489387916369218 0 0 0
-1.9234310361030922 -3.612209621547286 21.03524696288156 52 64 102
-0.0911216799844576 -1.3901455202374398 19.777043400913 0 0 0
-1.5459158297012592 -3.321161057023031 21.448617468845107 130 120 119
-1.391595668706769 -2.854431002236799 20.987818886256985 68 64 55
1.1226475769407935 -0.7698023574887997 12.452840948317744 96 106 142
-0.22182034687041266 -3.5211417341290625 23.690185578667887 0 0 0
-0.523180279589617 -1.2882042379069936 18.829794145479244 83 92 133
-0.3483954646387677 -1.3702954304298451 19.50524963918376 0 0 0
1.7715750703756183 -2.122806367668443 7.2189755944232425 72 71 102
-0.8141108090839959 -2.21061354540552 20.852360400702256 59 40 42
-0.38753346745613 -1.3732789209346123 19.38393552378974 135 154 194
0.6834189828544983 -1.9364885444144226 23.334492778170763 138 134 123
-0.4336844978702889 -2.384456849531416 22.07038349197477 0 0 0
2.2771466514128424 -1.7876148548561397 1.1926480802648152 98 112 149
-1.269820328206688 -4.683902744889941 24.04026564369282 0 0 0
0.11706949810134262 -2.0697304468726583 22.567263854418744 0 0 0
1.3547971362330005 -1.6988536432490822 29.83106451319317 0 0 0
-1.269820328206688 -4.683902744889941 24.04026564369282 0 0 0
-0.28944068712615817 -1.4504232662671024 19.01645596824405 0 0 0
-0.39435801192038944 -0.30244870961373405 20.546373603595406 20 21 49
0.15468316412121438 -3.459939832989219 25.194665984573675 49 49 75
-1.9200480278158851 -3.405990673405594 20.73111837406805 114 127 161
-2.2978254499719166 -3.100775967042999 19.70201645467018 37 42 72
-1.6247671180760965 -3.0580110033419925 20.985181951584405 132 131 126
-0.45815866441935504 -1.4569248183954833 19.536054697776308 143 160 203
-1.4589704616008772 -2.8785074111025577 21.019541223311265 133 128 122
-1.7096604658950323 -3.869064032890647 22.204589314540996 0 0 0
-0.4761755506509756 -2.4188666025555507 22.201859112040037 0 0 0
-0.760149299266188 -3.7757488503124024 23.897277006169844 53 55 76
-0.8106763180389853 -2.478724177828066 21.53366564281558 43 42 58
-0.22963300449393795 -2.730191425831151 22.964871303391085 47 49 62
0.2119798568081964 -2.029169427423997 22.915830835583648 47 37 35
-1.2209610225946097 -1.601634485883331 18.628867166064765 129 147 185
-0.3750871524157375 -2.889549114797927 23.221579654333716 0 0 0
0.1497242992158255 -1.0016706159555975 15.519051070215507 137 156 199
-0.10278762586899236 -2.8199433217595953 20.792010299317507 0 0 0
-0.10738588597093009 -0.9562824892818041 16.937413672619417 18 22 34
-0.167017621428803 -0.9092400888524634 18.099555970404378 137 159 198
-0.23974713603562572 -2.1837486140599114 21.942675640410656 0 0 0
-1.6847998308700942 -3.7943548913822815 21.868214221022132 130 122 111
-1.5774899729745304 -2.7844881515147737 20.505566299502924 121 114 106
1.485760719024008 -0.7844129662286281 12.047754547224844 59 66 94
-1.254921828005684 -3.4561903718434457 22.275457789070153 0 0 0
0.23467864719680007 -4.162016636541717 23.819444780798054 0 0 0
1.0866648817354914 -4.005430771764766 -11.699996031882447 149 149 175
-0.14921505148528752 -2.3532212193955373 10.142420522237199 137 143 177
-1.0512943277609392 -0.4566406078774764 14.082188138622383 50 49 67
-1.7872015833864368 -1.9279241094724375 17.793658680390752 123 112 128
2.1660811086850065 -2.3744493129251647 26.499096179533776 0 0 0
3.4032463864788376 -3.925313775612102 30.80031360319735 0 0 0
-3.848226884697578 1.2605884502402638 11.176220511490856 122 136 173
2.1161380826309664 -2.558857918426319 26.765981600907786 0 0 0
1.6892754180207412 -4.2940030738770245 28.418681538137456 65 79 118
4.630709847249236 -5.16036281466159 34.24266562159399 0 0 0
1.8434053714914473 -1.689934117440132 24.62057648975304 0 0 0
-8.284690043199115 5.4459641887552355 20.681693865336264 118 138 175
3.6298453465123552 0.9598691872141633 22.090854476129646 109 123 162
3.4685608490657955 -4.618184163642707 31.76713246549041 0 0 0
4.504133523217774 -5.26169441599049 34.02107026180357 0 0 0
4.977578941633257 1.3858026937671286 24.477525296456022 118 136 182
4.305443475985782 -2.282076698147042 1.8047949029606132 107 126 159
3.0712272098209743 -4.52543207819093 31.01048662281957 0 0 0
-4.565571819106825 -4.239297476924467 16.9779773798322 0 0 0
3.5701562043808535 -3.190590765463965 30.025459359431313 0 0 0
3.5239534199865674 -4.572277289537964 31.79490225412643 0 0 0
3.60641445938143 -3.7068738412366 30.854500000964023 0 0 0
2.5010459835475323 -2.953257270444232 28.029277043338457 0 0 0
-4.764613753132839 -4.465496786678207 16.88585486044783 0 0 0
4.36633945358733 -5.178365922677101 33.88620577094256 0 0 0
3.0497405701638804 -2.7685317623379526 28.569239312079095 0 0 0
2.8804986869306104 -2.426309164796905 27.85711822805865 0 0 0
3.214825851854584 -2.9132459930497374 29.081110083910758 0 0 0
3.746372756700889 -3.646425241144295 30.95578106006842 0 0 0
4.965872140310717 1.4870411894461923 24.232865775534083 75 86 131
3.2841648522222004 -3.309209596894278 29.778805030741154 0 0 0
-3.206188623579963 -4.046497415427256 18.93000258825859 0 0 0
2.8153876115496015 -2.690851991761511 28.032301079369688 0 0 0
-1.5802837411255708 -3.418196358878107 21.024972071716714 92 82 81
2.8986076685856226 -4.458210109793987 30.638202687876987 0 0 0
3.500133148606905 -3.2917400480882546 30.112878824928806 0 0 0
-3.816934807539639 -3.8539724682441046 17.755436680883424 0 0 0
2.703908151970702 -2.95514168284946 28.296046356336305 0 0 0
-6.262301972436241 -1.1813351144971809 13.535932369172544 135 150 189
3.884597093420555 -3.6720712817472756 31.205200368247706 0 0 0
4.097856820045491 -4.487741645791276 32.68458191300636 76 87 133
4.063526283238232 -3.8218250636413487 31.69749682661044 0 0 0
-3.1562556159249686 -3.9559367989490464 18.921467380893212 0 0 0
3.306457479893569 -3.1177463997538317 29.565586505597615 0 0 0
-1.2502400846805317 -3.8884713735825494 22.258591507853964 57 54 61
3.746372756700889 -3.646425241144295 30.95578106006842 0 0 0
4.206687183121118 -5.055129181190335 33.287970049561835 0 0 0
0.808836416201924 -3.138375914884871 25.258888914371436 113 122 153
3.6336855774051586 -3.661925241368259 30.85668852125109 0 0 0
-0.4249643738700938 -3.4047882624424735 23.15026492058923 123 118 114
2.9581644190883676 -2.9112347504524196 28.75443402049449 0 0 0
-3.4188113247166108 -3.644528150355711 18.18687614827566 87 98 143
-0.4153173216612117 -3.351783595265937 23.127955371451506 39 39 63
-1.5059998958414462 -3.051646600324833 20.68816290602509 130 143 175
2.192528314818191 -2.9845507724023017 27.551037215087934 91 104 148
2.5548591006840295 -2.9187530888415534 27.97152393453613 0 0 0
3.709453688495074 1.0332256590373314 22.319340035003375 65 77 119
2.5409905188968107 -2.831618758650375 27.873169379961595 0 0 0
3.306457479893569 -3.1177463997538317 29.565586505597615 0 0 0
4.965872140310717 1.4870411894461923 24.232865775534083 75 86 131
-1.4271496797761134 -2.129397400363261 19.221413446746794 113 109 100
3.3991923091947536 -3.3623603286136783 30.02117133493957 0 0 0
-0.02022681600300251 -4.371230640119408 24.967711841131457 83 77 103
3.1825472488887088 -4.587589469484882 31.274943021853158 0 0 0
-0.46754259761853956 -1.3254410152738882 19.338522667685396 77 80 111
-0.3344361999590241 -1.4960450294013328 20.058895727252466 30 33 76
-2.3614166497243367 -1.2898384180210212 8.83687959018889 126 141 174
-0.46302568834176855 -3.446570545598478 23.104879504210963 37 42 71
1.6585198212127157 -2.248244980273988 25.222826448075097 34 34 46
-1.9418326601370333 -3.7563198689606487 20.826475126728912 108 119 151
3.736447674838271 0.9512789610932089 22.383871061835844 44 38 64
0.8857951267418868 -4.445347657681393 27.21327944518816 0 0 0
2.7906836200956326 -3.0675948973884246 28.62382983358956 0 0 0
0.7945383659551286 -3.195323995723824 25.319564972255368 53 63 98
-1.5883915540334206 -3.935721571174014 21.727358011653305 58 48 47
-1.4481633051367242 -4.361720617449299 22.458390544482025 0 0 0
-0.9181302806549649 -1.8413342579173564 19.710169861297114 130 147 191
-1.2300282894298618 -2.181369837556054 19.88078680138762 98 82 93
0.2732494026075003 -4.383703784020237 -3.3903072745832503 43 65 114
-1.1586703144964312 -1.7709842177057515 19.085103739368733 55 66 111
3.632219786824813 -3.3727451169585736 30.4058236403699 0 0 0
-1.3774693320280673 -2.9034055673504113 20.72340742985802 143 140 135
1.252469428742371 -1.8449487776969136 3.628398388836417 52 45 37
-2.2448338975753694 -3.72543897483881 20.271640672032177 103 88 117
-0.46302568834176855 -3.446570545598478 23.104879504210963 37 42 71
3.5125465229951636 -3.506611114623776 30.335560437145574 0 0 0
-1.2428676244479413 -3.8142840586531976 22.117438189133622 120 126 152
3.637340834778668 -4.647902042482382 32.007336963137256 0 0 0
1.907836380542125 -2.595175638208735 24.840426148147067 118 131 173
-1.5831570665032595 -4.134306574776701 21.888831470975067 34 23 37
-1.1319244394681776 -3.99224521372907 22.613272526890587 101 93 90
3.3539234393647765 -3.0262371409144944 29.483987341103507 0 0 0
-1.5524842456509171 -3.475705348184342 20.854644054357138 92 81 79
3.7420412405952996 -3.5297421769542723 30.871262077490947 0 0 0
3.6855309466870008 -2.7521401427929844 29.721202381683362 0 0 0
-0.3636242433080308 -1.5871235024444057 20.438311795912636 0 0 0
3.3991923091947536 -3.3623603286136783 30.02117133493957 0 0 0
3.1825472488887088 -4.587589469484882 31.274943021853158 0 0 0
-1.3541137476294653 -3.328093148887915 21.268446015101247 128 117 121
-0.36172102795186734 -3.2571419853452364 23.113823698131505 49 45 68
-3.638004054381456 -3.201320462362761 17.392340219803945 139 157 203
2.6279528102803433 -2.9167291007292575 2.342096442805475 25 22 31
-0.36172102795186734 -3.2571419853452364 23.113823698131505 49 45 68
2.6571779634032056 -4.991123199661447 30.853244339503515 0 0 0
-0.2929902477395097 -2.295282671352293 21.64591517848515 45 38 45
-1.297270206177132 -2.8165078773809693 20.778232798006364 58 53 60
-0.8921281800452369 -1.5788998192785184 19.195606374198512 133 150 193
-1.9517613323244167 -3.9374238071137366 21.039632883026222 24 26 39
-1.5614255105569506 -3.120280850799309 20.65067082991036 141 137 126
4.036973347662004 -4.787482399762631 32.8473307938241 0 0 0
-0.7491532776824975 -2.036304618407147 20.47088087478775 100 112 152
2.439091220566451 -2.935127896009086 27.874773196531194 0 0 0
-1.3617799643998256 -2.842775759131417 20.620620757151375 126 124 109
1.6839316042889685 -2.0446466921781745 24.93659838685444 0 0 0
-0.5155137387018592 -3.171244494321604 22.632852826342237 115 121 143
-0.7521644586981319 -7.82799864473091 -19.63083524482795 0 0 0
0.9501189753576437 -4.4874454028035125 27.366995418691516 0 0 0
-4.220539006792493 -3.968044695609508 17.176146778806313 0 0 0
-0.07990092440290551 -1.364140102251928 20.009846155069642 143 161 207
-2.037729400701361 -4.046778232039235 20.962748849452364 63 77 114
2.6871068187984664 -4.852520048552312 30.71598393552869 0 0 0
-1.5382519260647711 -4.290108192778617 22.24416354406685 106 90 126
-0.3674237364150838 -2.4076751172251485 21.757260506647846 95 90 86
0.951072364951284 -3.5705659114911406 26.16576064173917 89 96 125
-2.244152497731303 -4.032097529855078 20.560260121515174 137 157 192
-1.6251076969364149 -3.8713949815517874 21.54925153661114 131 124 118
-1.1615912135029587 -1.4433876033672854 18.610527205841215 115 130 173
0.7063099104348688 -3.121191463551908 25.017604871840092 71 80 123
-0.41227328528200863 -3.61834273531499 23.4592257311003 107 127 162
1.8303057239859033 -2.0630580936889364 25.302753629006684 0 0 0
-2.064035715981572 -3.7533723963136625 20.691437836005477 83 78 101
-1.128709380439586 -4.6809219176792345 23.273483040248117 91 70 109
3.925156502276549 -4.524531540097816 32.37110466943497 0 0 0
-0.8395062901190252 -2.0258306776906485 20.307632552054773 112 128 162
-0.4566612915618383 -1.4082324398906265 19.604251677222475 101 112 158
-1.4535141090890822 -3.0003489756049366 20.652474371316316 65 64 82
-1.2346111329881349 -3.6496917013056076 21.947602135647394 149 149 141
-1.6154131025387635 -4.08238314322958 21.82688528084538 72 68 83
-1.0777541660859242 -3.8354101608476823 23.623949966693818 0 0 0
-1.3948041906131694 -3.1060080065407076 20.760706594916584 122 141 184
-0.8023727182038847 -2.877869831487775 21.18285294233389 78 68 77
-0.9832575205912442 -1.6492565590811492 19.128640484088127 51 61 110
2.95643014361513 -2.0685435244749653 2.772420272338034 129 148 188
3.318017849129157 -2.1343920661285374 28.755499622821745 0 0 0
-0.928157051445034 -4.447375379337943 23.477311560857444 0 0 0
-0.1810788412136525 -3.289528884487018 23.495400548193413 28 28 30
2.617300144684358 -4.757838460408738 30.501398721284808 0 0 0
-0.5961458051123191 -1.0923493983032821 13.226705225280387 97 108 136
-1.6780031540297262 -3.997187029072324 21.590825737587625 41 30 46
-1.774869030664768 -3.6742587527333157 21.05851003906176 53 63 98
1.0760490380542334 -4.368205365225434 27.307435116383065 0 0 0
-0.3519041116712841 -1.3530425725261932 19.66326788661745 85 97 137
-0.9832575205912442 -1.6492565590811492 19.128640484088127 51 61 110
-2.3327044373202543 -4.2985350847083685 20.767965186026675 116 106 140
-2.275261761020571 -4.2240499475916 20.788446766112017 73 46 79
-0.9689212106243063 -1.5499691821932964 19.04903149505948 48 59 105
0.9015340728924309 -4.595548939877833 27.32597188652498 0 0 0
-1.9156576710208022 -3.627743944089607 20.71628463463907 100 113 147
-0.38114850477636203 -3.665590372812007 23.621247324281637 80 80 104
-1.5273975227520262 -3.103605952858247 20.680943744411934 72 62 71
-0.27444792626525527 -2.915644343712945 22.702400583995182 141 140 122
-0.2857459043782719 -1.4404883771569321 19.105246757458794 94 103 142
-2.2094779723160496 -8.73881672997563 -23.518965825979368 0 0 0
-1.561397761993567 -3.225345572775385 20.784564628096668 56 54 42
-1.3646386220976845 -4.3827906215476995 22.659439405181153 144 141 136
-1.2218453433788377 -1.451408069434338 18.190146815536608 29 34 76
-0.7051222722717491 -1.1677282858352327 18.40675585909016 97 110 155
-1.128709380439586 -4.6809219176792345 23.273483040248117 91 70 109
-1.1752067797386019 -3.473019090754704 21.86541823353192 91 115 163
-1.305919011009083 -3.570901655080481 21.73185111600201 152 146 132
0.3876369489599053 -1.2761884807095123 9.667015662887001 135 157 196
-0.5031856390170234 -1.8681925521742575 20.669954211266578 125 144 187
-1.5410495893641123 -3.8686000973102446 21.701861679397062 55 45 43
-1.6540320525718817 -3.996815544985784 21.80534117127643 129 125 122
-1.21358995980972 -1.4677377089066426 18.345392776602093 118 130 168
-1.9087056676140333 -4.051287529159364 21.181888602805607 105 90 119
-0.274221219524113 -4.4916822519322865 24.700973834671945 117 107 141
0.19751570459235238 -2.0892867255458074 22.265776783520426 136 139 132
-1.580288142867517 -0.12965638520794076 22.164012202426516 22 31 70
1.562338891698149 -1.6401513802457888 23.793912152645223 0 0 0
-1.8677179399251898 -3.144104729560329 20.22000247971784 113 127 166
-1.0734241511014584 -3.6605605954983287 22.252515767105713 133 125 123
-0.5215133745716952 -3.946353594147074 23.92343960005183 117 139 188
-1.7265873123121633 -3.437690816368588 20.76304286788801 109 119 146
-0.930247711703301 -3.8117417088786203 22.798059329281 123 116 110
-0.6137703923660441 -3.962323626290162 23.46047350731317 49 46 55
-1.840829666710375 -3.0293817683001603 20.10515632199899 158 152 138
0.5347584318447811 -4.1402981076543055 25.671193249405654 141 152 180
-1.3088828042208198 -3.282883769031082 21.42936052943517 50 48 69
0.8978218187070734 -3.5940212070503583 26.113539767871423 56 43 73
-2.2502561311364144 -3.603773308214456 20.274218142240358 59 55 70
-2.190385331883073 -3.9135194764003844 20.840126728808077 147 162 203
-2.1880279023889297 -4.0972763627576345 20.83551327687888 24 22 35
0.5206640797765396 -4.042654131575008 25.8711606102479 36 40 52
3.1670123096841567 -2.98236897259895 29.088455030965676 0 0 0
-2.338211039404924 -3.8038795376663317 20.102829874932546 134 113 154
-1.1592763866134845 -3.7132658931792917 22.254194573952624 102 78 102
-0.5031856390170234 -1.8681925521742575 20.669954211266578 125 144 187
-0.3735466310183352 -3.5138550060571534 23.398747542304033 100 118 132
-0.7063806225659551 -2.48507830567652 21.33087341211143 89 88 86
-1.6981756508968486 -3.9501292886988217 21.519626973207586 160 156 145
-0.43526065149232557 -1.6036044391269673 19.65357793239316 121 135 180
-0.9715041671555629 -4.357083290556642 23.268368765182977 96 88 111
-0.17731353637696523 -2.202274962770461 21.704505535843346 49 37 47
1.229551605319062 -1.984658644079532 23.99789732912999 0 0 0
-0.4937842381767593 -2.462790294669128 21.895318002305395 79 81 96
-0.5858474229267105 -4.223642321363018 24.039044634796085 52 41 49
-0.4129163409894559 -2.440440910713557 21.907977443213966 44 33 37
-0.19655558771245135 -3.9872816052464914 24.24586582732247 97 90 80
-1.6540320525718817 -3.996815544985784 21.80534117127643 129 125 122
0.998368440132972 -0.9620251826972455 12.680590639984835 117 114 135
0.7731454228021448 -4.646623017288958 26.83738336578113 0 0 0
-0.417854654952524 -1.3878674482955489 19.652112090469725 93 104 150
3.302510706186668 -0.10817860103125511 -45.334793928463476 119 115 116
-0.4880291758807942 -3.2525279151988307 22.858212750766643 70 71 99
-1.8156371517804848 -3.0168552873187084 20.12364524174369 81 78 61
-0.9775541235515788 -3.2204821885255615 20.271754500510863 0 0 0
0.6534395193261491 -4.29072723285697 26.140648712230888 73 80 122
-1.81597320245265 -3.3174115497666703 20.449620407445213 118 131 166
-0.21324551129333147 -1.1564698346005076 12.94921024633332 48 34 34
-0.23491636422983267 -3.0459510460821404 23.001034072841225 54 52 73
-0.784350408210391 -1.3540818441697355 18.82988929516984 76 80 109
-0.044448696815716525 -1.424048495905894 20.778534132655217 48 57 100
-1.1919809710343696 -3.2277812539380206 21.550576593081974 71 61 69
-1.1786687320827234 -3.0958013445456594 21.217133363152037 129 121 118
0.9018224393858464 -3.7449674012224268 26.048504096753277 29 27 41
1.5716144486712322 -2.039037656467368 24.539618368590233 0 0 0
-0.09928346346651053 -3.8595449774210198 24.44895270276035 40 37 56
-0.46754259761853956 -1.3254410152738882 19.338522667685396 77 80 111
-2.1425470357168033 -3.501267809296599 20.108390681990638 0 0 0
-2.190385331883073 -3.9135194764003844 20.840126728808077 147 162 203
-1.254317696831215 -3.0341449652852686 21.134150725379655 97 88 89
-1.4386866581194955 -3.337336443878459 21.16209274327947 96 80 93
-0.42210950398415686 -3.7600979795572287 23.713084655370924 87 81 95
-2.1425470357168033 -3.501267809296599 20.108390681990638 158 175 219
-0.15349532207559904 -1.6821295966068521 21.200496824173303 125 137 177
-1.1187558630214591 -3.9383720755788802 22.597255858343004 127 123 114
-0.3364856925111731 -4.447981575866595 24.529876168537324 58 43 82
-0.19927726767345305 -2.950498577549387 22.88739880518029 82 70 72
-0.44673247411190387 -4.258827899155627 24.450417607029326 119 116 111
-1.478735177776788 -2.9122803564509914 20.568799600988648 76 64 68
-0.09512146475053503 -3.4825665771563887 23.90858577303198 152 146 130
1.1669229747443255 -3.7623317244461423 26.792335867829426 36 31 51
-1.0853701092241688 -4.766364008185225 23.52461150298825 151 158 186
0.5577473952411564 -2.5979752997700474 16.058471152875757 123 119 120
1.667790919573168 -2.082154095534778 24.956492148299922 0 0 0
1.0088232985761665 -1.0098338974104266 12.689948413616841 37 37 49
-1.935521987712232 -3.3618466568134067 20.397288352547925 45 38 45
0.9939477096047071 -2.028506834866157 23.250122392223098 39 28 32
-1.9661361524461989 -3.3144185981018843 20.13354264000822 152 152 140
-0.6503270990203994 -2.031902628410405 20.665252474913714 114 127 162
-0.433081024896165 -1.2020191332112171 16.14364587169445 146 167 214
-1.7407148764364082 -3.962833144450108 21.4264172581062 29 25 40
-1.0456837757330535 -3.5956274827491947 22.27536186173613 48 37 41
-0.34329283876464034 -3.634388596715553 23.728185549096523 0 0 0
-1.033966782938567 -4.259528158309513 23.326382003581788 0 0 0
4.435911698269605 -5.277797546592716 33.52371982471541 0 0 0
6.757596921023191 -0.5860128049697082 30.50237322403814 91 94 127
6.518653049254674 -2.751151674940442 33.55592235777231 72 83 128
2.122204279448449 -2.4094281907754858 26.19274137124776 96 109 153
2.122204279448449 -2.4094281907754858 26.19274137124776 96 109 153
3.206829953723108 -2.7075956853950776 -0.10351656498564857 62 74 112
4.188328657759687 -4.096290003747959 31.967602369973473 125 140 179
7.013567964223553 0.2710065600199174 29.69135422017393 0 0 0
6.71068078345154 1.597612139130775 27.30868985169559 111 127 163
2.073309626455663 -2.5878800864072002 26.511312954872672 91 104 149
4.554466438444889 -5.178088265051328 33.68435097107653 0 0 0
5.461502595274072 -3.5977484866069345 33.20809348895211 105 121 157
3.322311530047664 -4.570118121349544 31.15600066167669 123 141 181
4.84690560102278 -4.751169214712209 33.672972393485445 0 0 0
6.605033677965504 0.22926453547681996 29.134166183325643 0 0 0
4.659928832306818 -4.0952249644874765 32.613680737623476 119 134 173
4.297410708488876 -5.189236047674889 33.24984757258714 0 0 0
4.9509102616020675 -4.818827872814104 33.87784899200615 0 0 0
6.00336871640538 -2.8266926803268206 32.98440262344034 94 107 152
3.350218464689596 -3.9512728725290582 30.461290876915523 141 160 203
6.682336211890764 1.7369059698979448 27.07817732650098 0 0 0
2.7644710309531417 -2.7241752696918033 27.848062787287116 124 129 161
4.7080023006605325 -3.9965649231575435 32.60062154953466 55 61 95
3.109571387399184 -2.7553194449652545 28.59142810796414 117 131 168
7.162384591632737 -0.4235676797573672 30.883109611460007 0 0 0
4.831973572004425 -4.054140366716574 32.87812657315147 117 137 172
-4.870238060949687 -4.481566737803989 17.299738321682632 0 0 0
4.766844928229569 -4.797030638414007 33.57874130182767 0 0 0
8.596021403113864 2.7352364949778694 28.756705425406484 0 0 0
2.454672620139716 -2.983563574143326 27.722154132664844 135 152 196
4.68964900490382 -4.731885833267672 33.41716473289554 0 0 0
3.4489043055481643 -3.0489595678470582 29.54500459834984 132 150 196
-4.870238060949687 -4.481566737803989 17.299738321682632 0 0 0
-4.659438418109475 -4.249612933818641 17.352763856740367 0 0 0
3.515052915744836 -3.2256830471764304 29.8494546972007 79 86 130
8.447710334563231 2.805814910440078 28.51353759130013 0 0 0
4.276491915591665 -3.4997102459156464 31.450310258848162 126 143 186
3.345154384115495 -3.395041335330143 29.817340115451433 77 61 72
5.144835918645695 -2.9836799882275553 31.903358081667267 126 143 189
4.421652216280246 -3.8293768875728413 31.964975676399618 117 132 165
4.673339161081417 -3.9187534046183403 32.52487457902699 106 121 154
3.229719811931013 -3.3427906330368016 29.55509489522718 0 0 0
2.7590589275421844 -2.857078368768882 28.020664401400065 129 144 187
2.9979726771812296 -2.802548240621578 28.399082870201227 74 65 84
3.515052915744836 -3.2256830471764304 29.8494546972007 79 86 130
3.162150500298745 -2.9491631663303397 28.852643289020936 81 67 82
5.943945749772282 -5.376252178925829 35.80861888229619 0 0 0
4.776387424799669 -4.1218570002333355 32.88290696123787 55 66 112
3.930989281265157 -2.9724893107007886 30.113529923752605 130 147 193
4.7080023006605325 -3.9965649231575435 32.60062154953466 55 61 95
2.8293516485576555 -2.460044687437468 27.690039723725818 61 46 69
4.4498250919851206 -3.4136386009054682 31.58815438136371 126 144 190
8.351468466966997 2.447364110600744 28.700711783767076 0 0 0
5.102681427506351 -3.33534068533207 32.470586688392935 126 144 190
3.0263272873389226 -4.5384598814024155 30.631977189859843 94 101 153
4.522257968604007 -4.612193332467093 33.054626883255075 72 85 129
4.793446612839703 -3.168200398117085 31.698483628608347 132 131 145
3.5509541836601763 -3.73768010173444 30.598852737323643 135 149 188
4.566695184337639 -3.1992080759538726 31.416680059006605 69 80 126
4.573342038111144 -3.6631169807276165 32.006567833634726 80 77 94
8.447710334563231 2.805814910440078 28.51353759130013 0 0 0
5.132994392615493 -4.718695388635024 34.03559790519253 0 0 0
4.144672066451502 -5.076116213814113 32.91864913647708 0 0 0
2.85639979326932 -4.470871201155132 30.26411296010568 71 88 132
2.4954986458554202 -2.860222402761231 27.612381622160136 129 148 190
1.5318958469839745 -2.0979731454934245 24.2541494383534 118 115 106
3.458805028479897 -3.538622656504248 30.094225554993248 73 65 86
3.416951803691846 -4.6346903840092635 31.373529586766224 73 85 127
4.481851817242222 -3.238688045501851 31.259637428092887 127 144 187
3.458805028479897 -3.538622656504248 30.094225554993248 73 65 86
4.276491915591665 -3.4997102459156464 31.450310258848162 126 143 186
-5.368134612392431 -5.257487536479649 17.30024325854111 0 0 0
4.4498250919851206 -3.4136386009054682 31.58815438136371 126 144 190
2.656750073732679 -2.984188748934055 28.05175610772443 78 91 135
3.580152205555212 -3.4051160984584996 30.226581871935345 72 80 126
1.0744300835175888 -4.36140070250651 26.935602908334918 116 121 159
4.350827013642083 -3.4725324448023316 31.482401355793655 77 85 132
4.3007543456828685 -3.8280468726160883 31.8608917639076 113 129 162
4.963842883760443 -2.990888145805259 31.695396152768595 78 66 88
1.8083016387850492 -1.7275579712830063 24.32823795920622 115 127 165
3.864956616222135 -4.546873773495796 31.928512670366548 76 90 137
5.034776698947064 -4.76934575810888 33.97455060258432 117 134 177
5.574875353134306 -3.5061370361962014 33.211682792279795 114 132 170
4.789170366661115 -3.2456416041856557 31.714668634587035 83 71 93
4.691269878722237 -5.082648359198205 33.821099726111406 0 0 0
3.4722817559231687 -4.589075622127133 31.393009742398863 125 140 179
5.889384157492311 -1.4637849870212172 30.7634051488948 85 99 146
3.114624403409946 -3.016407791088301 28.887462835460454 136 146 181
3.6300179678355855 -2.7914732910746953 29.55830252648113 76 85 126
-7.284676131657253 -5.013064605966192 14.824929044801571 98 106 142
3.345154384115495 -3.395041335330143 29.817340115451433 77 61 72
2.9071319591155635 -2.942778467486742 28.568947062539763 91 104 148
5.279449288649969 -2.7993821792450495 31.862885961122377 123 127 156
3.9091811703664727 -3.1288359731781497 30.396423397052587 76 87 133
2.509211371635833 -2.946624841643239 27.730786946787102 54 65 111
3.930989281265157 -2.9724893107007886 30.113529923752605 130 147 193
0.6117325721854084 -4.5956422843593465 26.29879157656254 51 31 59
4.745665115757331 -2.997409984408259 31.38283958758992 121 134 169
5.572084663069123 -3.6166187541741293 33.394975500069975 68 77 118
3.5457268886787574 -4.543918409818305 31.461774845136993 74 86 134
1.322218373958861 -2.2012558389032986 24.30200232959394 83 83 111
3.826295406184112 -3.7074100424291063 30.94187888082709 59 46 74
3.68517707454961 -3.5642254075025996 30.652862098138847 120 133 175
0.7723160883099661 -3.7965944082501024 25.635126586116133 40 27 53
5.05752858961106 -2.9023131235060684 31.728893421004027 80 71 92
5.173720737613847 -2.8552291503556093 31.786513185079556 76 73 102
3.689267188690824 -3.68024338727412 30.713226494617285 59 44 63
-3.232110020749923 -3.616809339359533 18.683056126420837 87 102 145
0.9513982868778679 -4.479932220692779 26.980686753606328 55 54 86
4.63454870314197 -4.787065946242711 33.40863575026775 0 0 0
2.742866693141151 -3.0967321056640364 28.36523124566406 89 102 146
4.662305865524046 -2.833071029263685 30.935992216084163 67 79 121
1.5985075088448246 -2.625085811354992 25.401117345124742 32 32 42
5.698377344438829 -1.3853212456230521 30.41759673384557 87 100 144
-5.7020280020036305 -1.6896067461295268 13.665646331625998 0 0 0
0.8013686036558723 -5.808116096650726 -11.87042796800778 0 0 0
4.566695184337639 -3.1992080759538726 31.416680059006605 69 80 126
-1.442581642429803 -4.358710936583292 22.40273678538137 117 99 125
3.7398111468264656 -3.490434641300072 30.48029212127652 78 89 134
1.73674678824647 -1.1910364350689238 18.68527701433047 65 77 117
3.3000967526292224 -3.0608861936388556 29.312524996470952 75 81 113
-7.011839227364654 -4.788544367358472 14.991068082999911 81 64 70
-4.053490227707025 -3.5089798065219777 17.461954386028573 85 99 144
4.582637328700298 -3.7958788068969955 32.19786494338376 115 131 165
3.584286219197583 -4.6652902141419395 31.591722455073523 77 89 131
0.6377257697773018 -3.2560788736992876 24.748153908760823 48 57 96
4.244485981115358 -3.960897395066046 31.9265036333643 113 126 161
4.902771077096961 -2.8939195368862123 31.469861514874115 92 91 122
3.9759000622203753 -4.807299735832659 32.42242669891402 0 0 0
3.9204409159853557 -3.435362695753973 30.782431380553813 80 87 131
8.167308035440973 2.5492448623638935 28.42820113305503 0 0 0
5.132994392615493 -4.718695388635024 34.03559790519253 0 0 0
-7.491447996581797 -5.099996820433451 14.631008472516603 124 117 133
-7.166509138388843 -5.045709078134845 14.9479352335091 78 67 65
1.5638033417371147 -1.5114907099985548 23.197704413456517 135 134 132
2.65145428414945 -4.856867577963309 30.316254820626604 0 0 0
-1.117778843965573 -2.433068373567405 20.138724539630704 86 91 120
0.7792386332711461 -1.9309836262521605 22.32435274433687 141 139 127
3.1355665300573095 -4.601082111718866 30.890472252822555 82 95 139
4.511263994083106 -3.5473442975665828 32.043755741094884 116 129 174
-3.662001503514848 -4.110023646771921 18.29142709069423 156 174 222
2.5814229432924045 -4.763468862444686 30.11152131717908 0 0 0
4.68964900490382 -4.731885833267672 33.41716473289554 0 0 0
-0.6748228607001546 -1.7994224191017418 19.20606247679793 50 63 107
-4.946057890591463 -5.225819923106399 17.856271186335775 0 0 0
0.6924817797645588 -3.084572174411983 24.58847564347217 115 126 158
-4.265170248782511 -3.6674248612810385 17.39281301218555 80 91 136
5.32783046406829 -5.024552505361781 34.6044515332616 77 89 131
3.1355665300573095 -4.601082111718866 30.890472252822555 82 95 139
1.5318958469839745 -2.0979731454934245 24.2541494383534 118 115 106
3.580152205555212 -3.4051160984584996 30.226581871935345 72 80 126
4.582637328700298 -3.7958788068969955 32.19786494338376 115 131 165
4.740913823489636 -3.5010833539997304 32.02393286696304 111 101 110
0.9015852042186652 -4.588190241721802 26.9689430944921 57 37 64
4.414442383312657 -3.6341196768455513 31.726986181225193 121 132 160
2.623020422921378 -4.991393246218921 30.44241919647598 64 61 88
-0.3507003129047673 -1.6781790411551747 19.721295414429246 135 150 193
0.8859402767819241 -4.437725366447082 26.836658489654642 49 41 65
-4.265170248782511 -3.6674248612810385 17.39281301218555 80 91 136
3.365179726669259 -4.895270373284923 31.490629363852246 0 0 0
3.576745776098614 -3.6934648493435 30.633705555739972 67 64 91
1.6363398253139978 -2.426918550236856 25.08368195472048 84 77 67
4.80660933574685 -3.5290585753918 32.228383645293036 75 70 92
5.6584900683415045 -5.208755163724323 35.31797289317419 112 126 171
-0.06579313660075746 -4.171705418444369 24.298482700858926 138 126 112
-5.345869929874798 -5.2277400355846115 17.296690157713623 0 0 0
-1.0303994395571723 -1.4309171370390261 18.122968309133828 97 102 140
0.5901154551999611 -3.807648123587513 25.37420756946405 50 46 71
4.847350674660542 -3.4442782392552114 32.12403064512991 116 134 172
2.394507383974086 -2.9637142443464106 27.590206578703047 99 113 162
-1.6219540544223454 -2.1521404540868554 19.11258741319421 121 122 116
3.9782073813814662 -4.6735982217939895 32.40148156430221 133 156 200
