ply
format ascii 1.0
element vertex 714
property float x
property float y
property float z
property uchar red
property uchar green
property uchar blue
end_header
-3.443179369676049 -2.0554363733346612 3.569003661594672 0 0 0
-2.923311325236852 1.001915387055874 7.280761260152211 99 118 160
-3.173910264517705 -1.0614556196134148 3.4130583830356005 62 61 95
-4.145713261212253 -0.12986406140223292 2.379644337785939 52 61 92
-2.960524360182821 -0.2595025291936678 6.599535209390932 78 65 93
-3.166139362782077 0.8226199229044692 2.586031426334653 12 12 20
-3.192205549388827 0.641378823832004 3.212882727747421 114 135 198
-2.858299936608132 1.346501936510519 7.4953413080515565 73 96 130
-1.7574630217724 0.6607114380829759 6.418800910150209 66 75 118
-3.173174604939687 -0.9105090731407512 3.422036851001973 137 152 195
-3.2522783917792752 0.5015526602398727 5.947911828943356 50 57 85
-4.2340465261251925 -2.4332342376483793 2.6521737326253008 54 70 86
-3.1933990646231996 0.649311568101128 3.191205917875414 57 73 125
-3.0508050777993034 -1.114183707237569 5.459887447186828 75 62 72
-1.9002800806684328 1.1543273313149192 5.92947372293755 0 0 0
-3.197946829165901 0.24728481029284582 2.7846250771640557 60 66 100
-3.1076477969585885 -0.7943138180336099 4.23582465365586 71 78 122
-2.9654601443301614 0.7158879770827357 4.042304230283953 103 123 156
-3.049510828314389 -1.2587667964822244 5.437846813101313 76 64 64
-2.457590992984917 -0.9258996642810113 8.339932785786981 100 119 161
-3.173168997578572 0.08972404926317243 3.1320203838611094 110 127 170
-3.1928717956890336 0.6630980848631656 3.1672926880499044 128 140 188
-3.1600962244390347 0.09255265213075706 3.290736234758924 65 78 122
-2.9608992230457885 -0.34252760991181974 6.580152007551076 115 130 173
-3.1818841148292614 -1.6697226961489133 3.440827335962181 82 96 133
-2.864779681412075 1.2458379115723845 7.492118334537455 44 50 76
-4.958894913001578 1.0206722878102736 7.536796244905066 0 0 0
-2.9547516031300316 -0.939299740887138 7.0331111834438635 57 62 92
-3.1731245853875603 0.04308198368330089 3.0785942591099302 79 98 131
-5.556510966507933 -3.5105666719525357 2.5176613403598016 16 18 31
-3.0157157718129852 -0.4415869015429047 5.721726264458654 87 85 109
-2.932968459292463 0.38222127526403876 7.446699260988691 121 139 185
-2.9696357540465366 -0.3104235889504902 6.4377202418928015 68 77 118
-3.103668004560043 -0.2409571313910824 4.821112527313006 20 25 44
-2.9019620929591166 -0.7468060787188199 7.861875587404108 55 45 53
-3.4408062551891616 -2.046297461692219 3.617500479208604 0 0 0
-3.1702625763239585 -0.1920947821999248 3.309552428831337 102 119 163
-2.995965382928678 -1.0189240272976712 6.283985799083427 70 59 67
-2.179132469216721 -0.026736284418510187 3.8775311298139945 0 0 0
-4.155326487815221 1.5520253046069588 7.249303034473784 0 0 0
-3.0344944976289128 -0.29257198000205575 5.329293993372577 48 49 69
-2.223191326450079 1.4531775265061726 6.528120233232901 84 102 138
-3.1029898330681944 -0.39088174207166704 4.890386754508535 17 21 48
-3.145951033139203 0.17725393597186037 3.394114095382161 72 60 82
-2.9638615097821015 0.6308847817167186 6.087099734367444 108 128 163
-3.1710803416208826 -0.8200037977619119 3.4114851713895016 61 72 117
-3.161180476193416 -1.0313897641830416 3.6007459706117624 65 64 96
-3.0000507510397414 0.1879915448598845 6.350942631695916 34 41 57
-3.179804427117959 -0.81983771982339 3.2855691201300044 113 125 163
-2.1738563132238475 0.854566666177475 5.711025601197115 108 128 161
-2.8736745444518337 0.8637079641569351 7.6498515335180155 44 46 69
-3.0064251368949773 -1.1423789907143065 6.194978574688862 66 54 58
-2.2235362801195118 1.3262059423932053 6.568263779820254 50 49 81
-3.163498918625575 0.7776695411297472 2.5623624848042352 96 84 96
-4.736060760858052 -2.650040413421649 2.638639415583782 64 76 98
-3.237283481778264 -0.028333877102716953 2.2025567286166097 58 66 103
-2.9685629825369673 -0.4413679352835827 6.503944890134536 58 66 112
-3.2487364875916933 -0.9554153040499966 2.3841593475226355 106 125 167
-3.167909383776546 -0.15912533249635344 3.2393336395385055 106 121 154
-3.1778801979470956 -0.827267015565127 3.322115536323099 78 82 117
-2.5274661223588346 1.284643955621469 7.772924754716337 46 50 75
-2.900757921398434 -0.17312850509103955 7.647889642425237 102 119 162
-3.1202903060804537 0.3318739992481262 3.8582326261025703 69 74 103
-3.2007281106211187 -0.19250069566126227 2.8246862467369875 61 66 98
-3.0040437183749997 -1.0014799381134838 6.2198601830771985 73 54 60
-2.8618946876639084 1.4077527330041129 7.466912629667656 39 44 66
-3.0826002213731543 -1.364593731613011 4.793975887188042 80 67 74
-3.10526579932636 -1.0925512328619829 5.8709078204881635 113 108 130
-1.8085948153611997 -0.18336394644629272 4.913106583598721 121 113 134
-3.0913138014587203 -0.35218624682658073 5.0101620852701885 116 130 165
-3.1813807358343045 -0.8470115335933953 3.2635403617058034 49 64 97
-3.1701255547852214 -0.8720701442298607 3.4471612081446628 114 129 160
-3.1675533165005394 -0.11628128952833126 3.2907323944668105 90 87 104
-3.164934901125334 -0.9873080709363016 3.5221499665868987 0 0 0
-3.042233786291103 -0.11484208428251293 4.605631463147602 0 0 0
-3.210547045818769 -1.5061215287155456 3.052785371595101 67 56 70
-1.782259513099278 1.3988373105612488 6.191343524666528 38 39 57
-2.1738563132238475 0.854566666177475 5.711025601197115 108 128 161
-4.23356118773572 -2.2157482472516525 8.051275339392289 254 255 255
-3.1968289452595147 0.6244270342372247 3.144608316055386 42 57 86
-3.2343736328812174 -0.058221819743349314 2.362054064349811 43 53 88
-2.958850642286946 0.009922360103801082 2.640038736546746 49 56 82
-2.676178108235911 1.3519950392120388 6.464710683580009 101 116 149
-3.1762531944448904 -0.9344972879874229 3.334726321264415 111 125 164
-4.606772667062291 -2.299389557528624 3.169638240440343 82 95 127
-3.013108977147667 -1.0670484889679326 6.023062400699031 78 70 83
-3.109521700343767 -1.493209298350491 4.414302832370159 57 72 115
-3.109943445089666 0.201522700082145 4.025843289917763 0 0 0
-3.09191586021554 -1.3812821678407126 4.687941588437205 112 101 107
-3.1644942021152973 0.022755676262125022 3.295687966611994 108 127 167
-5.582854304851274 -0.5241866418621506 2.5825656493835645 0 0 0
-2.9455638485713056 0.6190196621173302 6.429651854189536 103 122 164
-3.1611682446351543 0.08204535682722519 3.265130969929078 68 80 122
-3.2013545460837256 -0.2845166252639549 3.3532365571135028 34 48 77
-3.081749156537312 0.04385693402865621 4.821920276223496 0 0 0
-2.8741033842868005 0.7635124774715095 7.564841891529792 79 90 118
-3.1893803512168066 0.6529704785416739 2.648387976962137 98 115 145
-2.227337878277884 1.488708023360143 6.492316468332879 35 37 58
-3.132899432746682 -1.3790621234464377 4.058393436575768 69 59 70
-3.188978661710032 0.18836407747204245 3.1666692638317024 45 47 68
-3.7242128837046486 -0.3347739158951523 2.507447468919434 104 113 144
-2.8997695221480924 1.3253993325737095 6.834000041968708 86 100 139
-2.9778586333791006 -0.15800747715922503 6.239549442216409 0 0 0
-3.1340065211401953 -1.4014960569378987 4.0678724525362755 77 72 79
-3.045941566869654 -0.5138375732943229 4.98153574272375 38 26 30
-3.1643595925507766 -0.11976365060932287 3.2983855648541662 88 80 95
-3.4981247950203787 -0.05319954907820559 2.4078472836133296 92 106 141
-3.237283481778264 -0.028333877102716953 2.2025567286166097 58 66 103
-5.143635546998864 -1.782496475221592 2.324769458287487 73 72 103
-3.104281921309346 -0.20813968043651523 4.740396132316839 126 143 189
-3.2045695567565335 -1.2421488761239559 3.0871900188072923 70 81 113
-2.973018135849565 -0.3052432603846719 6.315208249883557 79 65 88
-2.959960356463294 0.6093821206632701 6.266253691775711 71 85 130
-2.960416361183639 -0.28098654097889286 6.583661096112956 73 70 99
-3.0824012538402386 -1.2769500925409316 4.753355016335624 82 75 83
-2.888871009386765 0.7493488852444413 7.351755748621912 44 52 91
-3.1975161953546443 -0.043776259791057974 2.7527677449337675 92 105 140
-2.910260424795656 1.3068870780470097 6.730572577783619 88 106 142
-3.175343123541899 0.4829678159609491 2.6185567208471303 90 109 142
-3.1524915612948874 0.1873066359519485 3.444971861614042 57 66 107
-3.189904673923648 -0.6887610368466693 3.460704336282078 44 60 93
-3.001800723334869 -1.0006381393073627 6.208322410843411 71 52 56
-2.912541527923828 0.47582632942375114 6.977126786663235 77 65 65
0.5269043492509854 0.12998629103776255 4.8684003397949995 83 75 96
-3.247161622600948 -1.0560244355376724 2.37723862595211 56 53 84
-3.0139042786467805 -0.46623104797583154 5.74964825192626 124 142 188
-4.292224273805784 -1.8270393750715623 4.808817201638157 63 53 77
-3.1885998801755795 0.7218019117030976 2.559420693096848 75 88 122
-2.9310006747488866 -0.8743015038032648 7.332097552953396 59 49 58
-2.9154567255583728 1.3159686787679568 7.2279422564442335 105 122 165
-3.172905502072804 -0.8309751603340292 3.3999375715732385 111 126 165
-3.2428171500805822 -1.0792934699381171 2.4097737925806464 69 78 121
-3.1410315757271383 -0.5970360160133692 4.209822067584103 0 0 0
-3.166727354483296 0.043171596434186915 3.2142435027023804 69 83 128
-3.1516025436859265 -1.5394819908337334 3.8361810739239326 103 117 154
-2.6417501247462916 1.3335963648038516 6.512938681636998 55 54 85
-3.043834333465417 -0.6253874506311745 5.049165333436545 49 48 66
-2.9154567255583728 1.3159686787679568 7.2279422564442335 105 122 165
-3.173342402945357 -1.6331913359296288 3.587039914368979 57 71 116
-2.223191326450079 1.4531775265061726 6.528120233232901 0 0 0
-3.221375381490914 0.03644899767076409 2.7516698151216827 0 0 0
-2.921890577134035 0.8105273883895515 6.800914112408683 48 55 84
-3.1905548842405946 0.654798585877826 3.228166059090922 24 41 97
-2.958470139122352 -0.3171950199787879 6.603091217902321 0 0 0
-3.1735774818361078 -1.63556395052828 3.5748573161775417 102 117 156
-2.9139560776327644 0.6814454880382289 6.925014529577616 45 53 76
-3.2228890435583226 -1.5330620056449193 2.865584108232416 75 65 66
-2.2331671806352413 1.468862289152233 6.50316280151322 58 46 56
-3.023295315453005 -0.4274905534533747 5.48690000051124 89 79 104
-3.251310927068594 -1.7341797514490382 2.5658334456719865 0 0 0
-3.1691044136116657 -0.8961474148599967 3.3943575834458803 66 57 84
-3.2113931821030404 -1.5624854758688138 3.5043740463087785 57 68 114
-2.9507361237513696 -0.8075834059014234 7.037637723196374 103 117 156
-2.98551804693486 0.20992566945049568 6.405338915605762 7 7 15
-3.0465217402897884 -0.2112244143205075 5.601389661190277 142 165 206
-3.3849396995509062 -2.295928971055489 3.656986797962678 16 18 31
-3.159163808761345 -0.05319036185542856 2.702690383007722 103 121 161
-2.9279681205317933 0.32787000374137215 7.574854316730493 117 136 176
-3.179804427117959 -0.81983771982339 3.2855691201300044 113 125 163
-4.646983278349729 -1.302162828225446 3.483107462474812 54 63 104
-3.115489369602596 -0.7162725309560705 4.157015224938579 78 83 115
-3.241433760492982 -1.7177137073034856 2.7734263541114967 97 113 149
-2.223421392433178 1.4891060741920512 6.541823876133127 100 121 148
-3.11407368609789 -0.7063724976446804 4.177150526698534 0 0 0
-2.9102760356130015 -0.13875785468315366 7.381073027799728 0 0 0
-3.186835430337476 -0.7975441297563781 3.303737775875011 119 123 150
-4.636477853921157 -0.011936116918511689 3.1514399043284334 102 117 156
-2.9401736353852534 0.8196934395881008 6.459201361215876 104 123 165
-0.22312100281737923 0.7576179803698851 5.092764924207327 45 55 82
-3.1969529419714955 -1.478999121086828 3.1921169917725685 81 70 76
-3.174495278662627 -0.7913023343798438 3.3811243009367167 67 79 117
-2.9877850797834014 -0.45079986498898056 5.274703135298928 0 0 0
-0.5798542483889011 0.8068631390604877 4.893526493060288 115 124 157
-2.884276141653249 0.7246473714752831 7.4413259483569405 46 51 91
-3.2081623714231187 -0.7182537833942988 3.3116374244256392 0 0 0
-3.154326649001094 -0.5424696993108435 3.7626238400915346 71 79 115
-2.9335146657381976 -0.8838526972338964 7.334749777455142 108 102 106
-3.181366331494984 -1.0513827983635537 3.281619048090663 83 94 139
-4.292224273805784 -1.8270393750715623 4.808817201638157 63 53 77
-2.995651303785279 0.45800025387246046 5.673689233611116 64 77 112
-3.5018444523120427 -2.233287433617451 2.504777903495391 28 25 54
-3.2324998547018877 0.012304294501526737 2.318350194297816 69 57 79
-3.26201185071488 -1.7698350842067347 2.2337826038184603 64 52 54
-3.1343644176753718 0.6405690835210208 4.083986512464615 24 41 93
-2.926248241043551 -0.43069717694586374 7.206408314133775 67 76 109
-3.261273630919089 -1.000956318012926 2.2198237293894025 112 125 160
-2.99775173155116 0.08741689715222668 4.816850344558485 131 148 191
-3.1020508626075824 0.2630300127173464 4.136978103813186 70 85 126
-2.4103945115153693 1.0644432986127412 7.927452175619551 42 41 72
-3.203129378895342 -1.4892285691159064 3.124380585256759 80 64 65
-2.9048855927832733 0.7111296585689796 7.111023264491467 47 52 81
-3.262495309680475 -1.0144381210316582 2.193810467664099 44 59 98
-3.0103648807053456 -1.0661313142037818 6.089336278587859 83 71 75
-4.980590812114951 -0.49806342086692246 7.625463224057 19 27 46
-3.103481243376292 -0.389178053240633 4.8096598057989235 123 142 175
-2.457590992984917 -0.9258996642810113 8.339932785786981 100 119 161
-3.2692744877372935 -0.8614894604858716 2.393239232534034 41 56 77
-3.1038491441944913 -0.26690494716519525 4.799326282968803 138 159 206
-2.8664991186785818 0.9365768378652172 7.569816733394698 47 48 78
-3.7005335337406353 -0.28903191451397037 2.642188899974053 79 65 62
-2.523199181516881 1.672002219583972 7.756276251765233 0 0 0
-3.1764519914589333 -0.8598708423447736 3.2999928495935316 114 129 170
-6.007801690149645 -2.7714933213607544 6.149355696028804 0 0 0
-3.1778521655377485 -0.016751283194828517 2.699815820101922 61 81 108
-2.9613382066582012 -1.0617406827950469 6.890734720855059 0 0 0
-2.9496729613153465 0.34805978461288073 6.443128866012906 61 74 109
-3.0006323455786443 -1.0719245117348428 6.231191450558014 116 108 106
-3.142315805353537 -1.4371560656847227 3.983941348591426 68 57 55
-3.161456214583936 -0.11398574223644305 2.6388670608747327 101 119 159
-2.970000436216908 -0.428366058369987 6.5488478649798445 0 0 0
-3.181621468562614 0.2181238181726339 3.3199211436051437 48 60 86
-2.913759769944786 -0.1679543123160235 7.447660718988201 76 68 89
-3.2719720124782867 -1.6849512794171806 2.1930554471510892 61 48 55
-3.2513884714123416 -1.0004314147901705 2.326835537058411 108 120 158
-3.2930016480851676 -1.9887401895308827 3.638348468787533 26 27 58
-2.9972224683405484 0.23941831281488468 5.983200002023342 85 91 123
-3.249697464148351 -0.9729905991387221 2.3349986038165342 112 126 165
-2.488895392915542 0.8667795799372893 7.869649915852187 84 90 122
-3.207594554011389 -1.72296374469636 2.910162679420154 90 104 141
-3.122678934931385 -0.5031075263090948 4.014476373557149 87 100 142
-3.1909284619369727 0.5906633631204512 3.2477132774830846 114 134 169
-3.2441420317652794 -0.9906619084829854 2.4090528960954463 65 69 104
-3.4425366606722854 -1.8033880754988865 5.137327972136018 17 33 66
-2.5509316907668262 0.5764432076558951 7.940947123994076 0 0 0
-3.230110791487731 0.03089567087692019 2.351554622916073 107 122 161
-2.58967890444037 -1.2444471668403572 8.202936604900763 106 111 133
-3.171123179622414 -1.5637329053603328 3.641469773512067 63 56 74
-3.0013823536409663 -1.0317038662200002 6.224238292050969 66 46 55
-3.0481317686292377 -1.3982962701378714 3.8490412187121095 0 0 0
-5.306735312092525 -1.5455803599055993 2.2388882326535713 0 0 0
-3.0404897872484224 -0.5384964686193714 5.233009943263878 61 62 90
-3.2275937288372076 0.06488892084431966 5.575655343852857 128 140 180
-3.5111785987004485 -2.2516044971962477 2.5154863342143097 119 132 167
-3.183540283715418 -0.44663380623633003 3.102474772362696 108 122 161
-3.1911029207259465 0.6621936866990387 3.2353990677200146 117 140 181
-3.511000361264457 -2.2234241197075506 2.513856510310405 125 138 170
-2.913759769944786 -0.1679543123160235 7.447660718988201 76 68 89
-3.190476918362718 -1.6855675377171178 3.127699685768727 96 110 145
-3.167552235706711 0.09150039632385149 3.1879015346067585 78 96 134
-2.911202727866752 1.2959757078466378 7.332109882468113 0 0 0
-2.9055478585994976 -0.17306597743016408 7.528932394172572 67 79 127
-3.047042673609289 -1.3678385709440326 5.481930018495492 85 95 130
-2.9060641846329385 -0.17528173684726103 7.588342764951955 110 128 166
-3.0197174903183415 -0.8280822930227293 4.994332102010465 81 96 139
-3.391901781847232 -1.645936046305259 3.4854385985264322 90 104 141
-3.1747705298890736 0.2721622059148717 3.053245112822114 114 129 172
-3.143814379330572 -1.9147257003102802 3.1998907503228544 0 0 0
-2.3857056073528278 -1.7339777896332658 3.91165209578767 111 129 167
-3.0327564497682844 -0.27454687430164015 5.311565284038428 123 121 122
-3.0154617424481933 -1.1089441541425542 6.069328442964272 122 121 129
-3.1582846052588063 0.07763584787675991 3.3203644201545854 68 86 126
-3.0737994414660528 -0.678502225191879 4.7413829729263695 56 66 102
-3.0130167135176356 0.4198243393098262 5.4448623544415 0 0 0
-3.179861423627141 -0.9421180482896213 3.3632174685886094 115 127 165
-2.959622533821095 -0.5183511347442576 6.663239191704542 82 90 136
-3.258024010965435 -1.0284504496071978 2.225995127239822 99 117 155
-3.2943700529506845 -1.9824582019122299 3.659446215157557 36 64 104
-3.260059608770745 -1.223871699678904 2.2057829219169705 71 84 126
-4.452558993743956 -0.9931211396655769 6.597172628831132 61 62 93
0.49938476002691184 -0.46870451986140327 4.921166803464816 71 114 157
-2.9919591942657178 -0.6152936701135967 6.370340864554322 93 78 97
-3.2458648493417455 -0.9754128468802867 2.3643259185668546 70 83 128
-3.178863752737888 -0.8112386998960213 3.2602303674792563 115 130 171
-3.203679478422397 -1.650113327481105 3.1843654427065773 99 111 151
-2.942917728317146 -0.9334791771541645 7.228574564904987 59 47 49
-3.090348172130556 -0.3117143397689484 4.8593616671010995 132 147 188
-3.174832485944906 -0.9152894388815026 3.3695477742868705 73 78 118
-2.2238249799174863 1.4851016722094634 6.50274231447197 93 113 146
-3.001800723334869 -1.0006381393073627 6.208322410843411 71 52 56
-3.2719720124782867 -1.6849512794171806 2.1930554471510892 61 48 55
-5.249900020902376 -2.2707173526822686 2.6956629979807576 78 60 60
-3.3150494288562133 1.3574204128879 6.522085340115917 0 0 0
-2.3931450561320067 1.5595265855225848 7.955430605749466 49 61 87
-2.9936367089223253 0.5657279175252569 5.689467862002833 0 0 0
-3.0152962243526997 -0.7022977392285961 5.839424295789674 0 0 0
-3.1922926559026332 -1.5889771314092398 3.1928818429485277 93 84 79
-2.9401736353852534 0.8196934395881008 6.459201361215876 104 123 165
-3.271038593941366 -1.7051392271653885 2.2042097602706785 65 61 62
-3.152309650435142 -1.3679387909063174 3.8465761829663143 109 96 103
-2.4273629916756505 0.8636205900575422 8.193547451994696 49 57 80
-3.210027686526995 -0.08448681100723546 2.8472755940365273 106 121 164
-3.337274849864761 -1.9976779920018255 3.2124123481589706 68 69 87
-2.4125853848465124 0.9052161633051855 7.953666915274147 45 46 76
-3.173420519330937 -0.03402241866643151 4.86527105179149 0 0 0
-2.941081570136229 0.37004964780627897 7.428903275042927 52 64 112
-2.408155738100477 1.1435834401784275 7.914024011627898 42 40 64
-3.061803718597278 -1.7337300705624072 4.306113646062435 77 88 118
-2.8987907359927267 -0.3513128461199643 7.731155908182554 69 77 123
-3.0700870491377845 -0.45986401237536556 4.704775430243244 48 39 32
-3.0180364705290046 0.019843491388407717 5.112307860515312 75 87 111
-3.174495278662627 -0.7913023343798438 3.3811243009367167 67 79 117
-2.4667006859756446 -0.8330316343552377 8.459212944725175 0 0 0
-2.2238249799174863 1.4851016722094634 6.50274231447197 93 113 146
-2.9746918597008523 -0.5699546261784949 6.646406085873284 94 87 103
-3.0891041144788254 0.05328357133496912 4.883583517744208 67 76 107
-3.2286120314408233 -1.6144394075404487 2.7428585869135533 70 56 69
-2.9763846509653065 0.3964468494839928 6.0858567003304875 110 127 170
-3.1202514974467173 0.21671466898220762 3.914762116746228 117 132 173
-2.9692854294825164 -0.3241874917625905 6.463041781883477 123 140 186
-3.5870434134107385 -1.8869902050623761 4.856461422964596 0 0 0
-3.047857680439041 -0.7449815243176214 4.894414320835609 68 64 87
-2.9071708643030676 1.2239989125471267 6.830251676395541 48 54 80
-3.0845361444130086 -0.030901717765392227 4.740412903435858 111 125 172
-3.1759198343030204 0.32409080183324057 2.645907294091723 90 115 145
-3.2305452695424153 -1.5931569077748409 2.7415117025454325 63 52 68
-3.236620028670649 -1.6154619177123009 2.7190324392030387 51 60 91
-2.60120010595592 1.6555252026374618 7.625552000176725 81 74 90
-4.0912778711183675 2.1187491699365353 7.8609526318541905 108 141 176
-2.9382459676102872 0.44673384753856765 4.750579682855498 25 17 6
-3.1582846052588063 0.07763584787675991 3.3203644201545854 68 86 126
-2.9423339968817706 -0.9933876905024788 7.193237961305082 65 54 58
-2.9972224683405484 0.23941831281488468 5.983200002023342 85 91 123
-3.174050565556697 -1.6980053572473117 3.5124165501832723 82 86 113
-3.234538210111515 -1.6639562584324616 2.710212373153932 46 59 94
-2.6034000444320475 0.29304602485694287 5.07312218821578 103 94 77
-3.038582841560764 -0.5928993399456296 5.26976234280947 48 43 73
-2.410678001909578 0.0889191939278554 4.8046476661691875 115 128 160
-2.8210272821200664 -1.522214388472751 5.101856911200713 0 0 0
-2.9139560776327644 0.6814454880382289 6.925014529577616 45 53 76
-3.0776143938335365 -0.603088329541446 4.559369966450294 102 108 122
-2.5521403275043406 1.6936001138801644 7.76748782723143 89 114 180
-2.953855270053249 -1.0176741226534058 7.03286792733823 70 59 55
-0.05077888175630355 0.7255359765723293 4.307364167294365 47 60 76
-2.3995687841519566 1.383711192226811 7.873862189489241 40 38 60
-3.217302707170259 -1.5082486517257843 2.871141669743655 78 73 105
-2.672751141336761 1.449730627113359 6.092363318216826 0 0 0
-2.5521403275043406 1.6936001138801644 7.76748782723143 89 114 180
-3.024506242688086 -0.518554985551213 5.594094529899587 0 0 0
-3.040388906230191 -0.640278554934255 5.040649577263481 43 48 70
-2.2925774060127506 0.18516744586543563 4.86777234162903 0 0 0
-2.581559537494375 -1.242998653171486 8.226381173102448 52 39 59
-2.5541642625687713 1.6587136232129036 7.771969623172978 93 116 183
-3.0480818811258725 -0.7836854037429801 4.832494427479413 105 101 98
-4.630044623387833 -0.08335326386430549 3.323756759235927 112 125 160
-3.2207002280052373 -1.577149096079998 2.8731670242043466 79 68 74
-3.2668561786068087 -0.4171193112360317 2.0817190386464532 63 55 70
0.266444387654261 -0.42031764641235936 5.036727129611422 214 228 254
-3.1576060239858714 -0.6121685341318093 4.112824828031176 14 15 33
-3.2168123479809574 -1.6420784474193288 3.0718129408388117 71 59 59
-3.042347779841105 -0.3488884285520516 5.735176157394883 37 34 53
-3.028346326610221 -0.419264904078243 5.341018705458165 119 112 106
-3.2569044049156184 -0.9626751072953879 2.234002704785862 104 115 147
-3.0410461642471938 -0.527873092408553 5.230901126466151 118 118 120
-3.0931942048977907 -0.01415620455022532 4.799331037588935 0 0 0
-3.0811703416029714 0.020224041785235656 4.855327686499724 144 163 206
-3.0301939003496843 -0.594752637573653 5.250635702274831 118 101 135
-3.046563881478919 -0.4841631988687222 4.99594104187893 81 80 86
-9.59428170812172 2.8246260779253154 8.673423644702826 78 99 130
-2.996721353899094 -0.6009078701752281 5.191174804349733 86 82 73
-3.2542946890669393 -0.9949247948733605 2.310820655038016 60 74 119
-3.100934966203953 -0.27054545130147484 4.887334499670261 140 161 206
-3.0449904236025422 -0.6555602011064873 5.065596779983927 48 52 77
-3.105768869078264 -0.3665055315121521 4.768987329900834 114 128 167
-3.0264464775438418 0.11108095631855694 5.387417590665169 0 0 0
-3.0700728935275188 -0.6749525382701379 4.707582785814012 99 109 136
-2.1306140090210666 0.20268715867566267 4.8457333671996725 69 75 107
-3.219237347348615 -1.7059398418172609 5.1282260305752665 19 26 54
-4.751542787121042 -2.722609831649877 2.362146101858097 0 0 0
-3.6603077032983387 -0.0997912502395032 4.87909079295404 41 39 52
-3.7314959990174756 -1.786179772066212 2.7357068579606305 110 106 107
-3.0660398361646566 -0.07884477759638334 4.687541126099446 54 37 43
-3.163349075908243 0.007994551632151237 5.081512933884556 37 43 59
-3.201244916263144 0.8722976311292358 7.498572980540147 26 21 41
-3.1102360721449087 -0.38776944323053597 4.7798554204557515 22 23 54
-3.041084702718914 -0.6033801517178657 5.085650417309067 43 37 39
-3.072662541265185 -0.7566332018699934 4.660300236482678 0 0 0
-3.019256136432228 0.17580670672696663 5.384577190786743 69 78 121
-4.640695268611735 -2.6789787202026534 5.943794047314722 67 69 108
-5.027099087338567 -3.016162471398888 5.084939495219623 247 248 253
-3.574985362265665 -2.2484342909979302 5.366030448608912 244 248 251
-4.707506518708143 -2.842149685464861 4.938604627801776 57 65 102
-3.40708073798794 -2.0402772865807672 6.278663843418711 0 0 0
-2.973643629348474 0.9792570346852801 5.823757112513526 59 64 93
-2.97182647022474 0.7562397312173813 5.953830477858867 60 66 98
-2.9800637827681538 0.8266650305414931 5.7728084047172885 102 120 156
-2.9670993921940423 1.0742507636227465 5.903202549870076 54 60 86
-2.9769819502956794 1.1516414278116198 5.705692062228698 57 66 97
-2.9712860277721624 0.8485224283203581 5.930285383593498 105 123 161
-5.915344956194685 -3.2714351136664845 6.209326236425933 74 74 110
-2.976606824625199 0.7618227664588049 5.878401491279805 106 124 160
-2.9721569443517377 0.9860139916629647 5.8500005844418945 59 61 99
-2.9630699121759903 1.0813310515463042 5.930846851238316 57 62 94
-2.959659321787141 1.0195476796534984 6.059539102294231 59 64 96
-2.960907100509889 1.1028960427354155 5.986700061649873 96 114 150
-2.9714980585156936 0.7045920090853225 5.965493529810139 60 65 103
-2.987496092662809 0.8676696733236592 5.617086542934871 56 64 101
-2.959132062370923 1.1698932625029328 5.984196000501006 60 65 95
-2.89351522156038 1.3407337104228947 7.114703660525064 80 94 129
-2.978559342504424 0.6607647734133082 5.873326546145512 64 69 101
-2.973146452851401 1.2616520130668505 5.57812038945959 122 110 132
-2.965383711629393 0.5542431588204793 6.144855518987163 57 68 100
-2.978483844727935 0.7551214492761295 5.851088655336204 107 126 159
-2.982881951167219 1.0274659430284916 5.591727891020372 51 57 91
-2.971021425245057 1.0800262931325122 5.827161251175787 100 118 154
-2.998820743542252 1.0891735669035043 5.315610149910843 52 57 87
-2.9694716300052404 0.7628336625810552 5.981165423116541 59 65 101
-2.9899724344587555 0.6319185278316154 5.689255918914186 64 69 101
-2.9681965718958456 1.0080369538502054 5.906463227675173 105 121 154
-2.964585467786518 1.175010031618735 5.907969579320908 100 119 152
-2.965977303735499 0.943074489169695 6.01014346971967 98 121 155
-2.9565180728321723 0.5295816323598592 6.290589758120001 66 75 118
-2.977460912053277 0.6684254199850838 5.902293824099964 62 66 101
-3.0095148987202194 0.44331889585133194 5.444252547319747 113 128 171
-2.9798998437284405 0.8850355845788505 5.743918190944464 59 64 96
-2.9641298878328466 0.5736771687794446 6.1396604859744555 113 130 174
-2.930277020352856 1.1037902349828206 6.488832685230775 92 111 144
-3.033223452166476 0.9985267106612555 5.419069577373619 123 138 181
-2.9766483494946017 0.9142532608032238 5.8268697308603 105 121 154
-2.9887308091042395 0.6390262319531511 5.71689632419904 61 69 105
-2.9656767945468956 1.1817787068868564 5.890663514696051 53 59 91
-3.0560058514432082 -0.9492931753135184 5.681257121511776 65 85 135
-2.9291571231983435 1.0390059672979983 6.591577058138839 95 115 150
-2.98152931214644 1.1169025944137725 5.640609761576726 56 59 90
-3.122466008403404 0.4941941499198269 3.7350083711058195 109 125 158
-2.882488561855838 0.7633391316523425 7.559589179674325 50 61 91
-2.906417051195821 1.1630209631909987 6.963782962203047 50 55 84
-2.938144628201061 0.4214102886461295 6.778671721155035 95 104 135
-2.9636699804115807 0.8559281479534695 6.061855028452536 56 62 96
-2.9831466754995275 0.9442085419272903 5.655167406343921 105 120 153
-2.8732701830425853 1.1842233566558298 7.522457281850325 79 99 134
-2.9667397209436746 1.022540210824041 5.915508375663254 58 63 95
-2.9545919231216984 1.1735149742131574 6.053362917062879 92 106 141
-2.932750031053107 1.0325269691584686 6.563777935598886 101 117 153
-2.9665635580311966 0.6992651268587278 6.10119512587328 62 68 104
-2.9570053275691803 1.176758137747667 6.011253437471772 54 57 90
-2.9271647392263125 1.1263598837938031 6.6466182283082516 99 117 153
-2.9765386271250924 1.0381553673861625 5.736477291220525 104 120 154
-2.938785625049197 0.9382454527650333 6.486858623492573 100 120 155
-2.963571073267134 0.859248500785147 6.085982947283265 59 65 99
-3.033112220386906 1.0039800103332985 5.42810814061116 22 31 86
-2.973146452851401 1.2616520130668505 5.57812038945959 122 110 132
-2.9237720870598594 1.1411734168652963 6.655904819456832 50 59 90
-2.976867209241768 0.820249291804028 5.84919947698051 61 66 98
-3.2829654469018976 -1.9924468206980783 5.163601463278181 17 23 39
-2.913986375303383 0.9986050835997103 6.961575033696952 55 60 90
-2.9654228882339444 0.8349052866007481 6.040883490847778 57 65 101
-2.9830856400216477 0.6667695713505177 5.79835237152323 0 0 0
-2.9664581616429047 0.689124460663171 6.059899965772491 64 70 102
-2.9099081422214406 1.214007852333764 6.848004919779362 91 110 143
-2.9040341837151145 1.2555590880653478 6.9385118219455615 89 109 144
-2.979871641823167 0.978781058537824 5.721214723985978 100 118 154
-2.913151172596306 0.8659691105097971 7.073883601693919 104 122 158
-3.172097640759963 0.21052623365500078 3.0439242171400362 65 69 107
-2.973373577646658 1.052316861337343 5.7472843768743855 55 58 89
-2.9090845381436954 1.0273906178543806 7.048399818927157 96 116 151
-2.9712508177810744 1.1460946669522785 5.826223663075811 61 64 99
-2.9785517176789327 0.8920065170308131 5.771502049917085 60 66 98
-2.9844329389484243 0.6608415056429537 5.771571307212028 106 126 163
-3.103145780860346 0.18042330116385338 3.918874818322305 79 92 126
-2.9588684416724154 0.6181035480652124 6.253061660312801 113 128 169
-2.9567197520445445 1.1807214343927004 6.034335494965238 53 58 88
-2.8750924994957194 1.3405461200023043 7.573593879622933 41 45 70
-2.982715149413716 0.7194732987539271 5.786875271004993 110 124 161
-2.9372727542572177 0.9198228624380185 6.452275948904765 57 63 99
-3.1309966248461234 0.635972847689675 3.5107867666860852 51 63 103
-2.918026132330262 0.7703551186604364 6.99034082623023 105 121 157
-2.907409239832341 1.1632765055025043 6.776654553726531 21 23 36
-2.941110496753321 0.7108067326311456 6.6174857145120205 0 0 0
-3.013375442240425 0.3605858845975798 5.448801101747234 46 52 86
-2.972174040954099 0.4747476858071927 6.056995338368641 105 120 163
-2.9744942281919378 0.3441535971738243 6.035150491275902 119 114 108
-2.974835418823906 0.8140022475103287 5.867206897468347 110 126 159
-3.187544385387772 0.5043010129944653 2.839096732364654 55 61 93
-2.877936411924172 1.0262677018985804 7.548785986830507 84 102 138
-2.8953657679617786 1.2589736056380922 7.043950999440441 48 49 79
-2.973252098597521 0.8275372544148727 5.877260263857707 59 67 103
-2.988820458892163 1.120744991828617 5.510500070389329 52 61 90
-3.0564261609734484 -0.9689586379937319 5.6959921075499755 62 84 133
-5.786918475619673 1.0185297620634077 6.031763489669175 22 23 51
-2.977733998702544 0.6017077755878618 5.902772933362905 112 127 166
-3.128978871391744 0.623750432755112 3.4982291710780524 101 120 152
-2.9867803041618877 0.7315759044552778 5.692675155361906 104 122 158
-2.9631758720657433 1.2677422732933503 5.8904033555411495 103 122 152
-2.897860093355421 1.3601711236977077 7.002514010178203 47 53 85
-3.013375442240425 0.3605858845975798 5.448801101747234 46 52 86
-3.1403123123404435 0.30416946548669854 3.5739420251300253 112 128 164
-3.0332111791945064 0.949106593902538 5.437372131013133 15 22 74
-2.9660333781083006 0.7843821139131615 6.037254240726525 104 124 159
-3.0101871120962356 0.4198708814530378 5.445621095020712 66 75 118
-2.977253876171498 0.7729754530862024 5.859611498473987 57 67 103
-2.9204396217287925 -1.0231085160028075 7.490975513509598 81 95 134
-2.9822278311523283 1.0589027273887606 5.62515551679721 53 59 93
-3.0304761689270383 0.8648771529753084 5.50547172246334 33 46 78
-2.9640276053167467 0.7807702994589545 6.0970305354510135 59 64 102
-8.605429365490282 -1.155382829140626 4.203478176516482 36 50 89
-2.9768949498604496 0.9859530186529392 5.7479597419168975 98 116 152
-2.982613833969498 0.7265238193004806 5.7686217293208335 63 68 100
-3.7608579018711903 0.964756717986216 6.990764046265199 0 0 0
-2.9164390035851024 1.2339942781409239 6.735493487674983 47 52 82
-4.762546657156251 0.8329914109984512 5.974777419597312 0 0 0
-2.9363308925186984 1.0040116269462989 6.485390718723139 55 60 89
-2.96189399664936 0.9502935336802633 6.037901812287987 105 123 159
-2.9021665682531186 1.0304529829864493 7.14974356730673 50 56 88
-2.974541756448939 0.9283198778440765 5.835647953941023 58 64 100
-2.8839289082356814 1.477429860380734 7.187572410869291 86 105 138
-2.983715188055622 0.9505197972844094 5.639079191040538 60 63 94
-2.976698215829958 0.3138016762780891 6.03657936583805 107 113 135
-2.940386499133302 0.6798673094736164 6.502028739051222 58 64 100
-2.9387702541650715 1.3303666633409081 6.259590600419805 100 115 148
-2.9071857462327477 1.3173981336204401 6.909424643231507 47 54 80
-2.9988336393071964 1.0855147118245594 5.330078003001076 96 109 144
-2.965013531051891 -0.43860665277868427 6.5576501145626915 66 80 119
-2.97661795193472 0.3542567590799811 6.031016394971563 58 50 65
9.989073235700436 3.5523062634894256 5.930048446051528 50 72 122
-2.877862199980511 1.4342182194700897 7.550539934388694 74 90 124
-2.9701351535578597 0.9157982580322569 5.928217440023547 58 61 92
-3.139163394723299 0.7560498964959947 3.3992686551285596 56 63 92
10.367980099518531 3.65063808953191 5.853983380644554 0 0 0
-2.8739999397460405 0.9613294180765203 7.655312166386533 83 100 130
-3.180233431164791 0.43907203093522973 2.947804785045113 57 66 99
-3.1219013326062837 0.8163008147690427 3.685552452840496 98 114 148
-2.968298767720974 -0.44020376011382956 6.54475294662431 110 126 159
-3.009551787119746 0.25080003290301006 5.52900158167938 86 83 94
-3.20634426590413 -0.2807498733188334 3.25287771702562 123 142 184
-5.3810940487899135 0.9396840476197772 6.0899076713776905 28 25 46
-2.96124249264007 -0.297721717480021 6.565596229694624 76 70 96
-3.100939817705853 -1.5476394537841287 4.453504758951556 40 34 48
-2.9604261077743046 -0.34301050713219194 6.580259414780879 115 130 173
-3.0197631210145484 -0.541885829406344 5.698041812851026 81 93 133
-4.580832159061597 -0.12983625677605268 2.051795503725432 59 65 101
-2.910255596895763 0.7766820288034533 7.0167405939379135 98 118 153
-2.8983496501829755 0.7897204616345924 7.321045992989368 109 127 165
-2.9329892870317464 0.4520413458555701 6.802096398783862 63 64 82
-3.159050705407725 -1.8206725380978965 6.775820250214038 61 68 110
-3.0295112450540707 1.010542042727109 5.463536922642489 46 52 110
-2.9747526016217902 1.241107147211609 5.7037277661408075 105 118 152
-2.9583349530381113 1.1101437224755277 6.012877891011225 97 113 147
-2.9643272892522856 0.6832783469521391 6.076719757090526 107 123 159
-2.942612754381956 0.6832371594443938 6.5372678913979145 58 64 96
-3.0366001620854304 0.9956227369947108 5.347403209039182 103 127 165
-2.9423513683636195 -0.3944863872081063 6.971451090859135 105 117 157
-2.528766608359064 1.2221760015650383 7.802746194091833 86 101 132
-2.911846981585979 -0.9837180223043395 7.899342562397653 70 83 117
-2.985476171642616 1.1288509300650547 6.169645437141553 113 136 180
-2.985476171642616 1.1288509300650547 6.169645437141553 113 136 180
-2.9899959248472014 0.565846770797864 5.690274874719467 107 125 163
-2.902430960068721 1.0826544927877166 7.063230094646893 92 108 142
-3.0326647330140837 0.9781055455809886 5.436501524105808 21 26 68
-3.001138764067425 0.4193187594212771 5.606003740563455 58 66 105
-3.008050724042022 0.7282236040587469 5.264008218526689 57 57 85
-3.181677898052925 1.0038926527746326 7.43350380117895 104 123 165
-2.9782466068699613 -0.3972566850907744 6.314978571971672 0 0 0
-2.899063066962753 0.6794502544111533 7.368515428810649 94 112 148
-2.9080302054913907 -0.2603261903377538 7.631321385265436 98 117 150
-3.1682824420810602 0.045167090607852116 3.088907991406343 71 91 126
-3.2177981873851778 0.4456188751981386 2.4637789806116905 62 67 97
-2.9375834230434243 0.9325906211843135 6.457567921543808 97 119 156
-6.280851738048528 1.3607585708116137 7.586918128981789 20 24 35
-9.464458637119273 -3.008281645945256 5.922704579348557 60 78 128
-6.285110950548353 1.163967466722454 7.562228694701941 0 0 0
-2.9274829254016304 -0.08254624845267387 7.161095349013883 73 83 119
-2.871847963819652 1.3977553500324569 7.4861740100167005 76 92 126
-6.292736279503728 0.9842167322602796 7.64817307050293 28 34 46
-2.954064466847531 0.5776206602034563 6.358015465077574 111 126 165
-3.1169493934997776 0.8258829837951874 3.671555833504843 52 64 102
-2.971269559636825 -0.5343490019671671 6.514952792119901 73 81 127
-3.4358366377382046 -1.6323989461881858 6.700062454794456 0 0 0
-2.926192717874645 -1.0171114176250793 7.606833463461457 75 87 127
-5.28744225907116 0.9275490341198721 5.88930926031616 12 14 27
-3.1933070301651347 0.737731035119837 2.6384732207081347 76 81 111
-2.962760092687142 0.9392865150117276 6.072012175552059 54 60 92
-2.9366558391832727 0.38994827277977784 7.510145881589791 98 117 159
-2.9902773300404935 0.7894523419723908 5.629701078886702 59 67 103
-6.285110950548353 1.163967466722454 7.562228694701941 106 124 164
-3.202937997343384 0.24977632667938424 2.7001060135484223 99 107 143
-3.1195906988937443 0.719362068986942 3.6923114177689134 57 62 94
19.967469265422384 6.468143362667341 5.122967331467148 53 63 114
-2.8848609335165194 0.7270305325468863 7.595084776289321 94 112 152
-3.1887358881710646 0.3449918512925207 2.864490981465934 59 65 99
-2.468271884856317 0.8471420500743752 7.920779724292622 87 106 138
-3.5186455527640366 -1.8917495367568902 5.155973054671669 40 49 82
-2.9888837636067986 1.1160212657113573 5.5255555204604265 96 108 146
-1.862360500450776 0.875100137597284 5.776301441262543 35 48 80
-2.9640016614476354 -0.31801203719943355 6.55429410039363 77 77 105
-3.1153971348751663 0.4403777834064576 3.8273806015141014 57 71 108
-3.178184428834215 0.16473331746580447 2.6716998550069397 0 0 0
-2.964951152101064 0.7903473042645457 6.062927680846028 104 122 160
-1.3106580083621961 0.9018267833033541 4.930859032756165 27 36 67
-3.0439619922739762 -1.1165386912550659 5.4482758098025945 76 61 64
-3.00824273325154 -0.4059867184963616 5.753031562580017 82 79 108
-1.8981195337976278 0.8047949978772824 5.789145433717754 116 133 176
-2.931599126726637 0.5031277361412252 6.812040546665566 100 118 158
-6.280851738048528 1.3607585708116137 7.586918128981789 0 0 0
-2.9366558391832727 0.38994827277977784 7.510145881589791 98 117 159
-2.9685881144649042 -0.18034537570838657 6.449804642231573 131 152 197
-3.0051461115292235 1.0427362793764037 5.231690473092965 83 94 124
-2.971269559636825 -0.5343490019671671 6.514952792119901 73 81 127
-2.9743089995023047 0.31164191842410616 6.085175576101589 61 73 115
-2.846581959106395 -1.2936726319735687 6.7837949560175925 48 61 78
-2.92204132182153 0.9706706497803849 6.774998710695469 50 56 82
-3.1956508954458984 0.5086805132443636 3.1974627670760123 0 0 0
-3.0304838337495084 0.9373581160019095 5.494759233544247 15 20 40
-2.4626197034183965 -0.9437374217253743 8.33530162400661 49 44 76
-2.4562253693718543 -0.8254542672072531 8.307204826571487 65 54 58
-2.9774932693626814 -0.3566402582206843 6.301099550761707 79 92 136
-3.0149199048074258 -0.6287087214230577 5.815685574579259 126 143 189
-2.900255924188434 0.7783938891578394 7.330575809009842 66 76 125
-2.9458107515282603 0.6654871960794158 6.450385477652429 62 47 66
-3.035229091958681 1.0134396444238416 5.430226253431722 110 129 169
-2.9746563273299933 -1.2017668650928026 6.626492499589146 36 30 42
-3.107991330106571 -1.5634110980127645 4.356434042774329 38 30 43
-2.9415220817738463 -0.9863215468057047 7.25948497177819 73 59 56
-2.952236230787641 -0.09310118121603743 6.645424294268028 79 90 135
-2.471445484682683 1.2137607707268327 7.848251487148085 47 54 80
-3.458722225801057 0.3127049839350074 3.1252165633890776 109 128 170
-2.9329892870317464 0.4520413458555701 6.802096398783862 63 64 82
-3.1682824659775743 0.30302145836945255 3.0326726145603042 111 131 168
-2.872033731190811 1.1662727608031966 7.503851287589692 46 47 78
-3.2066351095703234 0.2935435187808906 2.699815929619106 80 90 126
-2.8953816592418735 0.7095968164074508 7.399095355254255 99 118 158
-5.28394206868333 0.6039347298347496 6.135866143135564 110 130 163
-6.28167116164047 1.4005199385873692 7.523838143919577 0 0 0
0.3534713211282344 0.833078471995974 5.175067011763748 18 24 36
-5.286089865994168 1.0225391113660862 5.835100181950589 14 12 34
-2.97189916884835 -0.31182162608479536 6.372102023429945 109 122 157
-3.026516800365471 -0.5206443798262527 5.490398672245029 82 97 136
-2.913217632130951 0.8126000308549116 6.835425716829984 22 24 37
-2.9643382300561445 -0.46958192244696834 6.534237716805786 121 138 184
-2.9212436182336403 -0.20132731851317828 7.323757839013108 84 98 143
-2.9160209840814226 1.0127418600648002 6.86893289862304 50 56 92
-2.9369243443104978 -1.0702292628123207 7.358334955447843 74 87 121
-2.950063798273347 1.206895595463267 6.090651392745398 97 113 149
-2.9505139794288815 -1.003212003659323 6.906956963793623 92 86 86
-2.8801763386864443 0.8665565156931799 7.573952085139379 87 110 144
-3.057458583447597 -1.0338188859111013 5.69430430384444 65 86 133
-2.9024780391656515 0.4996011014382268 7.345985487009534 97 112 151
-2.098312018122993 1.4777186189224474 6.512679990486268 93 113 146
-2.9606251124892764 -0.5705999100165039 6.669743579008517 60 48 72
-2.4154143725991557 1.2313922629338538 7.950515120356224 35 37 58
-3.1234301848079116 0.0017943600942230769 3.7961569571992273 95 82 92
-3.0988344734270066 -1.4160700799845856 4.653135157277121 104 118 157
-2.887337491808841 0.7617922972927698 7.566557174665154 79 90 118
-2.574012471282827 1.6421638220417378 7.781695820532963 10 10 22
-5.790793905428735 1.1258969677273871 6.015973307431411 0 0 0
-3.1747076855149996 0.024966421791885855 3.089387461338815 55 65 101
-2.9640016614476354 -0.31801203719943355 6.55429410039363 77 77 105
-3.013916410709121 0.4903600675585862 5.344846671205697 70 53 71
-6.281746094702585 1.2793640585176125 7.543428908118162 106 123 166
-2.9784506196769485 1.1476487972508334 6.294087705593285 0 0 0
-3.184147919105935 -0.17279494481719918 2.980850756632009 79 65 62
-2.946417904307857 0.0889617214203808 7.5599614741387615 111 128 171
-2.959857715511112 -1.0426322931837382 6.869428080833073 68 56 58
-2.9484698593398715 -0.005019908352657855 7.509479930362632 120 140 190
-6.294529265792588 0.9293980826700575 7.704397816839937 0 0 0
-3.1831392721739404 -0.8470862954124134 3.2624583212811187 49 64 97
-6.241654978955368 0.5222351883805891 7.536855268786616 84 99 142
-3.102587693527222 -0.6474640693753732 4.257431457964 67 77 113
-3.1195637287381994 -0.02700117267953583 3.8528332066769306 85 69 69
-3.502643363799028 0.9279605463494958 3.6229649246074085 100 113 147
-2.917495265882807 1.064151521218366 6.857278603950887 51 55 82
-2.4200415540197513 0.9120629157384009 8.001763463064878 41 47 73
-2.9132436626594225 0.5553858360763327 7.1359243393400495 98 116 156
-3.014337255938457 0.420738892236439 5.32437971217727 45 50 72
-2.9686033321391485 -0.28335323336145474 6.557451270499472 111 120 151
-2.8999189647535837 0.6990588460916396 7.333972626400425 95 115 152
-3.1636592052174373 0.08191116873488813 3.235678315389595 65 74 113
-2.9102811473946146 -0.23926198742447263 7.582108369910759 47 38 65
-3.0029628514003415 -0.2139950687127488 5.811868503050143 105 118 162
-2.9551282572339823 1.1603007476773297 6.070079279742146 53 31 43
-3.0100639892734415 0.47403997468152986 5.447212755947202 71 84 128
-3.1981626169383217 -0.07424648214558036 2.670591377141409 111 126 167
-3.0432330976078554 0.6142747456311196 5.409357593117208 0 0 0
-2.98461294281926 1.1212786026218546 6.183891482643038 34 40 72
-3.1471782446411765 0.6693738851796021 3.3583804521166667 55 63 100
-2.961749129472137 0.6212803001341228 6.164409287819496 0 0 0
-2.940960930051018 0.3787811175002444 7.4479256116229475 121 139 185
-2.9057194866087723 -0.738262449441114 7.932311967181757 50 35 38
-2.9496082328992705 -0.07295858257187969 7.470755512811627 20 25 45
-6.295743785430677 0.9105725869783134 7.60385686113867 118 137 180
-2.957118803316446 1.1136881324257875 6.057543419532887 102 120 156
-2.952155042045763 -0.04749369863269696 7.482051620623941 23 31 52
-2.427995658551312 1.0653366233941748 7.953057129580918 0 0 0
-2.90623177702602 -0.15094582521529712 7.67319982759909 45 59 86
-2.893005751483025 0.7549880769558982 7.453262225084968 51 60 103
-3.186817905428829 0.5998591401918967 3.2376179446329316 42 47 102
-3.0940969349228244 -0.3456817032196476 4.942517915813649 111 128 174
-2.877685976300691 0.8176917649728166 7.675945880087469 76 95 125
-2.9179414436693962 1.2887878495427858 6.722795634087522 47 51 78
-3.0136921816250184 0.16585474161825686 5.529011136117944 108 123 166
-3.0143731182494946 -0.6263292399456295 5.7801399009563434 132 150 196
-2.921553207803988 1.302104560058003 7.234654909043284 0 0 0
-2.8731410014744165 1.0095044814556406 7.531071654080279 47 50 83
-3.1682824420810602 0.045167090607852116 3.088907991406343 0 0 0
-3.0037160404987864 -0.2505056258746286 6.390449214450179 82 97 128
-3.15350928845509 -1.0399845733174304 3.598114917908708 110 107 128
-2.9156760309910146 0.6997049320536685 6.934123282722388 99 122 154
-3.0304838337495084 0.9373581160019095 5.494759233544247 15 20 40
-3.0536767760245724 -1.275412312405524 5.321115862744588 78 69 72
-2.956182474855519 0.5665274685099634 6.3044974221308 109 125 159
-3.0313357059444144 0.9540397131332985 5.471577060517728 0 0 0
-5.596058877056725 0.647563342485084 8.046112628293159 76 95 125
-3.0265883608834088 -0.9609468677772762 6.729140116572503 98 104 140
-2.9739879008692447 0.18874726080599152 6.439386582197969 0 0 0
-2.9502070701336844 -0.9310543732755451 7.003451107748771 0 0 0
-2.4532492424251915 -0.8068578591656064 8.42530119880614 37 28 33
-3.0143731182494946 -0.6263292399456295 5.7801399009563434 132 150 196
-3.1057183257346206 -0.6687471123646871 4.238104439646275 124 143 185
-3.00376763325825 -0.09523017399325932 6.365748736573496 120 138 186
-3.1323511758341533 0.616777100707909 4.082745837340503 14 19 74
-3.2879481469603147 -1.5690376722936232 6.133532526977211 58 73 96
-2.9183740211406843 0.8665369255680194 7.28336365329795 0 0 0
-2.958385753452536 -0.9712218579143751 6.877758873985416 68 61 68
-3.1369151386450294 -0.5959078025858336 4.21169639960046 32 29 50
-2.9043788717160375 0.5021992559724721 7.362378726881477 98 113 146
-2.99267881791715 -1.0820061975470554 6.332227629106831 58 66 102
-3.3377579479420207 1.2466476962367699 6.2163278241368625 54 60 94
-5.494031267033278 -1.851905098390696 3.3034921523365943 51 73 120
-2.4612867210845093 -0.8184635564233538 8.37601945892286 53 43 42
-2.958385753452536 -0.9712218579143751 6.877758873985416 68 61 68
-3.015470340700316 -0.8217958612013215 4.981801850521392 135 154 194
-2.9822723880482807 1.1268750936645 6.3240779845776665 24 27 42
-2.9102811473946146 -0.23926198742447263 7.582108369910759 47 38 65
-2.094650861929021 1.4632435789368883 6.515216106915475 0 0 0
-2.6789358587138743 1.4219372142516438 5.991065050645572 115 139 167
