ply
format ascii 1.0
element vertex 712
property float x
property float y
property float z
property uchar red
property uchar green
property uchar blue
end_header
2.146987876424633 0.710613396879396 6.208116636085276 0 0 0
-0.15218919159072294 0.43739435541791705 4.641059775947539 44 70 95
2.8137722115621235 1.1646456162147762 6.313049006313176 74 84 120
1.9365203527029227 0.46213078422409193 6.241957515578836 0 0 0
0.2696221095364047 -1.1348223797919168 4.077072315206461 73 70 79
0.12258615501158185 -1.01199863181635 3.910348664974377 24 21 28
2.3355031698924753 0.6336204759612222 6.202626778672793 114 127 159
-0.14264573185232104 -0.3406851879144191 3.54625773842891 32 32 32
-0.22206981103240775 -0.35938752832509685 3.563235747467063 0 0 0
-0.14995983694966006 0.7772486229919934 3.3846572046334136 231 236 255
3.1041650628206403 -1.2427639673203772 7.039266813602312 156 161 191
0.30128471633051057 -1.1159477601067789 4.101752981096233 41 35 49
0.05617818889267311 -0.9063764465705656 3.8574503090180823 0 0 0
1.6877618386824447 -0.20933847518428905 6.138552875288131 108 109 129
0.6991283141764412 0.055425123123311534 4.4097810128304875 54 51 62
2.3500690041784167 -0.064584833936773 6.260787240380092 109 111 132
1.7911032079209217 -0.2807734787761767 6.246419440316633 0 0 0
2.5309243642846546 0.6305112468473201 6.21826067673519 56 62 88
1.9159351405924898 -1.4774301522322235 5.822247112900792 56 56 94
-0.15910653457727458 -1.0246396784236842 3.6421149059487257 177 182 211
-1.0436338401410645 0.3510579158567049 3.3189853561284 92 100 147
0.5132696732439284 1.0118689113156447 4.294521044158607 134 150 186
1.7617701734891944 -0.33161240010946824 6.251261167821962 0 0 0
-0.9922360126296053 0.32465837982933166 3.3728775280425234 63 60 67
0.12258615501158185 -1.01199863181635 3.910348664974377 24 21 28
2.043426301962332 -1.5895394106156955 6.009020365455692 55 56 74
1.9439055170682915 0.7462289979112339 6.186054078374027 102 97 119
2.3467094098965386 -0.7089465995836661 6.223097439211627 47 43 57
-0.7437857343127927 0.4497640531766979 3.7133991065991467 201 217 251
2.1768307128744127 0.7308955975092497 6.203702892770043 37 30 37
1.6701673895606486 -1.0583240197205284 5.545690495848882 32 28 42
1.788192700195263 -1.065979330907428 5.686874785353168 36 35 41
1.2309724995844145 -0.876347342367086 5.059458894797465 0 0 0
1.8562167791234634 -0.22933716218403427 6.83735418654914 101 98 117
2.4888138497839867 0.5693884160384415 6.224837627493233 0 0 0
2.1012121919071456 0.9096915279013427 6.112645606851461 0 0 0
0.11849475187020198 -0.9558389359015361 3.9375641857365022 116 99 118
-0.9829604737320334 0.4753926381393423 3.3885869262400865 91 86 83
-0.7838320447197609 0.3050405564945654 3.7193471065373456 0 0 0
2.021529310121389 1.1082102158972666 5.072852207559394 0 0 0
0.2916897726138345 -1.100456845026333 4.093237430003127 91 79 99
-0.7277376599396455 0.7610449261926016 3.6309716515769153 118 145 192
2.1032888293885557 0.8191490242085626 6.132221533861291 0 0 0
-0.13989430692144425 0.5073805261509852 3.501401934915768 0 0 0
-0.9475441233102213 0.5603382306008499 3.445261613563889 38 50 38
2.3713565043888405 0.7347851246276947 6.1916962800546775 0 0 0
0.18629763880815575 0.8943349580640296 4.0742960065276685 84 89 118
-0.6631404244013971 0.0767144991485862 3.897766513720672 147 153 185
1.7911032079209217 -0.2807734787761767 6.246419440316633 0 0 0
2.131965828312918 0.763193892533154 6.1770988949812615 38 28 39
0.14382236834309492 -0.9500036394665653 3.9535176218734556 0 0 0
1.6723147344659464 -1.274703504515965 5.553293002357136 40 47 66
-0.023541128625316 -0.9678122470961403 3.7424474085124957 100 106 102
-0.018326173237595566 0.13424158410673992 4.756359900242699 84 82 104
-0.7346894889884452 0.5474526622608755 3.707411387620651 0 0 0
2.04714240718167 -1.0752357762274445 5.934259760531803 131 123 147
0.6995674380591397 0.3402443484753823 4.389743921108574 62 58 73
2.6181499422204126 0.5507608725537437 6.316722104738838 0 0 0
-0.14830162997973761 -0.5266751693236467 3.5983580660534855 90 74 100
0.36839509371174056 -1.1753146329039117 4.1992622854773405 141 122 144
0.277830250714165 -1.0583427791796236 4.082405048816511 129 106 124
1.2034174948199257 -0.34723555859722294 4.985690257580379 51 55 66
2.097238599323311 0.7760396401153619 6.1441324022278305 0 0 0
1.5115341301873764 -1.0176793547844225 5.371136458773485 0 0 0
-0.18618539739995926 0.8460746840899843 3.358367897488776 0 0 0
1.4003645753992249 -1.1609648680249054 5.276376886577922 138 138 174
2.460738665178923 0.7977880115078796 6.162948730878649 0 0 0
-0.9601049273329466 0.4494735047369297 3.4112415299227705 168 191 245
0.46951569114953806 -1.0358282512884966 4.283084362864255 0 0 0
-0.7369046422757944 0.47152532277542497 3.7216943766057278 0 0 0
-1.0695462096457717 0.7986797681409196 3.3308083309422134 106 102 127
-0.039556886365436514 -0.8069781536979129 3.7474702134656486 0 0 0
1.579810385137231 0.8769711226691665 2.8241691090135688 71 74 109
0.6518272787976318 0.6836071792358247 4.2664384562376085 60 78 114
2.3372004370970494 0.8920366646402063 6.110819099243198 114 112 126
0.6259095616146043 0.14973854344656937 4.486987441150359 0 0 0
2.1177699848772344 -1.2566126702301699 6.028461752956285 57 52 72
2.097238599323311 0.7760396401153619 6.1441324022278305 0 0 0
2.595987948712834 0.06225753004734308 6.3688314185749935 0 0 0
-0.15593011751503744 -0.4744342573448991 3.577415651657259 0 0 0
0.7082462633985833 -0.21475958187016156 4.422196303092703 0 0 0
3.0076116030310547 0.7777800638218708 6.694909659125443 126 106 143
1.4112161050516898 -0.9260276047640612 -2.6850891236705254 70 73 108
0.004703902688035478 -0.9344211219290622 3.7854317006501423 160 164 189
-0.26849871345740445 -0.36385622583639193 3.6318791363440837 0 0 0
1.5515951833945019 0.8750335831129864 5.00844324502316 0 0 0
0.8309223300609386 0.08607978990578459 4.5532158117691885 0 0 0
0.7235059354442647 0.9952602334364811 4.2742001208324165 128 122 136
2.6993212218648917 0.8905676566910976 6.225933200335538 166 169 200
2.5497765776735393 0.9175898981222621 6.090079995508156 0 0 0
0.6980216566789663 0.3693576722337416 4.388165155440422 52 48 63
2.5467920572247125 0.5945578046705596 6.241942778793103 35 38 53
-0.1190108899687466 0.5379180520993319 3.535352663436846 30 38 61
0.26628119162894426 -1.1821809198204098 4.071710502647603 21 20 28
2.3372004370970494 0.8920366646402063 6.110819099243198 114 112 126
0.45880751503753886 0.9573566957082755 4.043825304851548 134 148 187
2.5489870290498513 0.2659639866983255 6.296419587045404 0 0 0
3.1883091954339586 -0.06550743268702403 6.96789985925346 34 25 52
2.777743993311933 0.9572562661652267 6.306482431446467 0 0 0
1.9300041724847161 -1.107916489506364 5.82499495685057 120 110 137
0.8924774352304015 0.5157332680573568 4.556868060809013 0 0 0
0.6412740203875419 0.9644075070072754 4.213031015469753 36 37 57
1.6701673895606486 -1.0583240197205284 5.545690495848882 32 28 42
0.43720215452933125 -1.083503141092765 4.231111917596254 142 134 157
1.2277099445041684 -0.1559104967051208 4.9681994899090824 0 0 0
-0.17220161153376626 -0.34129438183267824 3.5426120700800374 0 0 0
-0.9248996854104112 0.44083375329934193 3.4372646873525685 130 155 212
3.1185128640236797 1.2475292595841383 6.719738072397036 47 54 82
1.5625488947271884 -1.0138451047064285 5.425338389835666 133 125 148
-0.7489345900961711 0.45356298928579464 3.7083760055349924 0 0 0
3.0178709474586753 -1.6598368638714562 7.051888010315459 178 190 230
2.784095980605575 1.098150342108694 6.283983690589056 66 75 106
-0.15353307462657767 -0.3898843000498216 3.5768682178679425 54 52 63
0.2117340319744563 -1.065162703085547 4.008067074863541 56 50 64
0.3697584152447054 -1.1501112844960337 4.20244757038451 148 131 149
-0.17837738662850944 0.442639643179295 3.5269572056934706 16 18 31
1.5305914845167135 -0.9494388738449286 5.398516451103267 0 0 0
2.2965620054564306 0.7107797937421734 6.220058367602047 0 0 0
2.6483676422881763 0.5465860528236732 6.329272039936091 0 0 0
1.7537186573649612 -1.0961214536080783 5.644296144827347 113 110 137
0.11194084956337955 1.4046222329448002 4.148859982056379 136 141 163
0.3792005051274781 -0.4716754653311849 4.744248257238749 25 20 24
-0.6639010417744029 -0.2876468241079276 3.9389529818303823 0 0 0
0.47295910904889904 0.9259705812100321 4.224407558437481 0 0 0
1.4747686368290405 0.7419069504954268 5.028224278008493 0 0 0
-1.0065159965743926 0.4283293517551489 3.348486461490962 56 133 203
1.5850729774080732 -0.5391947478635785 3.3217495724887773 50 48 61
0.8409120076112085 1.152763765032711 3.4408982491068163 88 88 124
0.27474989456895543 -1.1403701144344214 4.081578758838577 39 32 50
-0.22008102883623504 -0.40221544217955263 3.4818833591428002 0 0 0
1.1983971683258114 -0.053416780301359 4.95060971796403 159 171 209
1.2251191497563434 0.8882452574114581 4.713594278753 39 49 76
0.6373405147384419 -0.3120760490600988 4.434716511845668 81 80 98
0.3513118685817937 -1.2469300003178334 4.188891681133072 31 22 39
-0.8712954670705679 0.5722779104253722 3.526204742417461 0 0 0
0.2874895109513719 -1.1519253855171894 4.092552090298748 99 81 103
0.2699707687635213 -1.1519168626770897 4.079818774066638 120 109 126
0.7785470191191032 0.5568991646686812 4.434315056948028 132 136 165
1.2026662749072101 0.8889448132014464 4.7049808945659395 0 0 0
1.0621618506403177 -1.244931509829753 4.933188869014004 157 154 173
-0.21850088114373603 -0.44191762093712916 3.481867318118375 0 0 0
1.4149038902733904 -0.7773635949336237 5.2565203210309885 0 0 0
0.2874895109513719 -1.1519253855171894 4.092552090298748 99 81 103
-0.768519364548146 -0.4846184404431433 3.819039842804866 46 56 81
-0.21779984962317694 -0.5038586809491032 3.48844981548452 59 51 72
0.22886919873905964 -1.2381119925456148 4.067431720957799 145 138 156
2.113763740363719 -1.6604798292247878 6.054503329944297 121 118 139
-0.056037167281526246 -1.0783757874782507 3.7597454958112984 129 135 171
0.03533643792756777 -0.8909976214492485 3.8352076974774203 0 0 0
1.294494104626718 0.15061853651298152 4.984239648653795 0 0 0
0.91160440782259 1.0569084476190698 4.357138280240903 73 74 102
-0.9695832906413205 0.29488016686665436 3.408430464120012 174 198 246
0.7434454010975411 -0.302172352365274 4.474637119502826 39 37 50
1.6950503964515489 -0.5312055040448078 6.148981037422407 110 103 134
-0.11304800426953215 0.8928609996482646 3.4096772031633438 0 0 0
2.372236794730803 0.8140745694531446 6.224328216178986 0 0 0
2.221266936730478 1.4550868635544547 4.8285767941833235 78 82 117
2.372236794730803 0.8140745694531446 6.224328216178986 0 0 0
2.581540466754885 -0.13916620388410694 6.367645771158969 32 28 51
-0.13657497916907585 -0.38729914898966594 3.605474827520966 85 76 93
2.0746284053969486 -1.6822897881901766 6.042144814443814 111 122 144
1.5750470148685034 -0.9914491130101633 5.443622189041245 39 37 51
-0.2435370246055466 -0.6142737601220726 3.4860833242282814 0 0 0
0.6942482003216387 0.40139550170417343 1.3750962947453986 75 74 105
1.7722347188777805 -1.1454734931720794 5.658776135050391 75 60 89
2.514665133379813 1.0387698529568767 6.1187775882519135 0 0 0
2.1072784850905446 -1.6860110743176315 6.055681792095966 132 138 154
2.0759646425552987 -1.105511485834764 5.9692831936890345 70 56 82
1.572507032097175 2.164174149186302 6.834406941861915 114 121 147
-0.008733397190677877 0.9030983766744379 3.9961872644231953 126 136 171
0.77040319923091 -0.06353115040779506 1.3918519477680533 80 85 115
-0.7003116999065664 0.9035789054143322 3.6653761276780816 0 0 0
-0.9120097801937771 0.5280036867322995 3.4432790013915335 0 0 0
-0.2029483956658984 0.5097535477615873 3.4180140443528093 0 0 0
1.4524761354805458 1.010163523837138 4.5444712051246094 119 133 170
0.6286829130376459 -0.27347905293666425 4.431515421428751 0 0 0
-0.1333300057979644 1.0429952953283421 3.5030861956979256 68 73 113
0.7382135180171013 0.45845915024733425 1.729452984839412 143 149 185
3.0373781300171845 0.055801605213183045 6.780888485604894 80 89 106
-0.947084773412166 0.32697038749241986 3.400791361431826 202 217 255
-1.0383639635426651 0.3435770379939739 3.348920622214302 103 108 127
0.36601582867215615 -1.0933739451550537 4.1958416068261695 142 125 144
0.5661360146755184 1.2193073859321641 3.676539654241689 149 145 182
-1.04205850238712 0.36332783986182715 3.3309033362303344 169 191 232
2.2138476712663726 0.06048577519909646 6.275219848832947 113 128 157
0.6542827268499939 -0.5215089003663832 4.434361885347072 92 77 106
1.3597890049641286 0.9976462306065474 4.626930885805377 41 42 63
0.5983569772403947 -0.6789380199941832 4.39414840841594 79 60 90
2.3676817975382467 0.28895507810304927 6.253670318489251 49 41 64
2.0225736575878885 0.524359298743999 6.22564475441223 75 67 90
-0.2071204514814016 0.6424590491200391 4.556116060649935 59 80 101
1.9364962508976955 0.4612344915882474 6.241186529796627 60 48 68
0.6542827268499939 -0.5215089003663832 4.434361885347072 92 77 106
1.9364962508976955 0.4612344915882474 6.241186529796627 60 48 68
0.5837023286761762 -0.7071451030734448 4.381702773371502 78 63 92
0.5497682056769555 -0.7627312749369399 4.349883218447683 77 67 92
-0.6531301565887526 -0.1981077863811456 3.936125399580223 128 132 159
2.1510361442055257 0.3802345942501056 6.251506878525512 81 78 97
-0.7274082552740043 0.7250145500423171 3.6392585146960963 129 158 202
2.0477831937491664 0.6347356034537702 6.220733101737394 37 34 51
-0.1918159449011502 -0.3613893398629534 3.4886942861346286 50 48 61
0.10134692950121996 0.2525130179776781 4.755182252181515 43 42 50
-0.09168233906280165 -0.7261711927809505 3.6912485394497367 144 129 148
2.075112442596062 -0.3640204671426328 6.291255060519977 94 85 116
0.5523145313709377 -0.8160648654868663 4.34794035440318 128 117 149
-0.26053184944739366 0.3229084975195377 4.544223988087744 24 30 42
0.264556429856045 -0.9609878045986994 4.080753249785644 71 57 82
1.9378152368982962 0.413956216049456 6.248404338705313 57 47 71
-0.2071204514814016 0.6424590491200391 4.556116060649935 59 80 101
0.9961628246011163 0.7057238580549353 4.615048299935524 109 115 127
1.9404075394466673 -0.16279917766291616 6.315267920991642 59 55 80
-0.11924094464273331 -0.6366705310506313 3.6472065629143198 159 140 160
1.9271428609394787 -0.5769171640492868 6.236092378334352 39 31 42
-0.2204738503756964 0.3950719589754688 3.449980719665169 84 89 119
1.939048018403231 0.1267851189178401 6.281913531731407 58 49 70
-0.670946284481176 -0.19076678187488766 3.913935989790515 88 93 123
1.1892284535525053 -0.561237476301154 4.986375224955842 93 101 137
2.367673822244043 0.33538225923963133 6.241989857809489 58 51 69
1.355381235669565 1.0004049659930658 4.780204267272072 36 43 61
-0.26308525895898566 0.2014752460155144 4.548284515732752 33 44 72
-0.6469887565946858 -0.1314540077108083 3.933978485717499 76 82 114
-0.7283764558404717 0.8149244260312453 3.626070825876351 77 101 149
2.1157498686432183 -0.6178431446370364 6.224665561723436 73 65 88
0.6885108216702542 -0.4287770726272411 4.454889789751371 59 44 67
-0.6454614408907751 -0.13894013618436246 3.9432374075648196 90 87 108
0.8633146631101579 0.3217629060080011 4.544533867740863 170 180 216
-0.17616396842005852 0.8633066606662396 3.354881006075353 28 33 63
0.585464875477878 -0.020586683044454955 4.542538143842712 99 103 128
2.366665008704976 0.6137975715668794 6.213627045120972 56 52 75
1.9375276433922195 0.17815494319230066 6.275439183075953 55 46 67
-0.6469887565946858 -0.1314540077108083 3.933978485717499 76 82 114
2.2468729044721347 0.14001061492052333 6.2740146600706845 53 43 68
1.9375276433922195 0.17815494319230066 6.275439183075953 55 46 67
-0.7283764558404717 0.8149244260312453 3.626070825876351 77 101 149
0.8909685377778184 -0.4658637983467049 4.669478482549581 127 135 174
0.5554067013600307 -0.8017433120030949 4.355586780395468 131 136 158
0.21363385032067927 -0.9644310662581397 4.029525884792959 58 39 67
-0.7272494023917727 0.5715325517979716 3.7060044645336347 53 50 69
2.48877056001338 0.5683254450112376 6.224353286744904 36 35 51
2.063758007002756 0.744856889452139 6.163287113292002 80 68 88
0.585464875477878 -0.020586683044454955 4.542538143842712 99 103 128
-0.2071204514814016 0.6424590491200391 4.556116060649935 59 80 101
0.5890224791328298 0.2953576541021044 4.500372932674889 101 111 138
2.2130166687516577 0.6147482791028522 6.207339390605337 111 123 149
2.2130166687516577 0.6147482791028522 6.207339390605337 111 123 149
-0.6285649932112207 -0.11027174839061339 3.9508516366764566 139 151 175
2.1155175136608713 -0.9384884596336 6.065569948001708 103 97 125
0.7266453162674501 -0.6513634946803156 4.478333816552081 81 91 118
1.2419120838834636 0.3763283351348776 4.899755919078054 115 120 149
0.7652909271929632 -0.28151122876230145 4.476893427692757 91 88 107
0.8607691013840107 0.4734848250064337 4.522366454955921 159 172 206
-0.21966510421283325 0.4711886358781826 3.4029465505762286 44 46 58
1.446252198382965 0.9998100903465525 4.550100379987537 118 134 168
2.455078815791843 -0.9945999573384202 6.247851630511711 169 180 212
0.6204704565004168 -0.6047793965808322 4.406234280414181 137 128 149
0.6333798098172125 -0.8689863088187679 4.424438653794777 168 173 205
0.7125779521235606 0.4508543192586629 4.372555014868493 130 128 149
0.955004670397962 0.6290067401367984 4.6034755802619385 164 178 207
-0.8877715331367757 0.612604085043579 3.4568322305150136 51 57 79
2.0778843900283643 -1.180977315278363 5.935015271090404 69 83 110
2.416239109776287 -0.7593605581318615 6.285017762566434 105 94 126
2.42393560270085 0.8290772516478918 6.130828851960757 102 95 111
-0.2166545512152903 -0.22576559222181175 3.5081207520646682 61 56 79
0.1383369648832484 0.8924146025189318 3.8739561168834227 105 114 145
0.658687677479014 -1.1186886737485746 4.504034959000822 129 127 166
0.6945649694667144 -0.35481624243296445 4.452675029337633 71 57 82
0.6657279293454665 -0.6134106523214328 4.453307277415045 106 99 130
2.3597841246085958 0.017412996738472332 6.28141816839543 87 83 108
-0.2636523702273768 0.1320210874422354 4.553896374589698 32 39 65
0.678620143807006 -0.7984879764861342 4.480551978402729 170 176 210
2.5163940736428683 0.580646920762902 6.230817502558785 79 84 103
0.6861850944390407 -0.35021886173098943 4.445653432362624 143 132 149
-0.13248041754414724 -0.5714166711604255 3.623683886307754 164 145 165
1.3606215908333215 1.037526234820952 4.6205505999307634 21 27 39
2.486471790521959 -0.7542820983979223 6.3101003461557585 33 38 57
-0.624718581900721 -0.1025351806286978 3.9530329477158674 79 86 115
2.428867071636673 0.5233651690845725 6.222221962265364 96 91 121
-0.20704576278977266 0.3918975779580715 3.4665611147247613 161 167 201
-0.8681546068851252 0.5750356999938259 3.522269408229965 50 54 53
-0.7566338865493897 0.8733891642068086 3.628210771555055 21 20 36
-0.7473982708929908 0.7616767438441762 3.6296740234540015 30 29 47
2.6392473437092545 -0.5067192781986593 6.411498124921483 173 182 221
-0.6779880552056066 -0.3194855866457759 3.9236880781212675 63 63 89
0.6601181195504943 -0.8437159260234357 4.446449127071383 160 165 195
0.028250715769849413 -0.8692186052799996 3.816874325340203 147 135 159
-0.7297037640482258 0.8963546923317536 3.620994266427063 67 94 141
0.808225894480069 -0.08346912955952043 4.524060710673511 95 84 100
0.6957086446920875 -0.30959116957779675 4.448104789332514 55 42 62
-0.7380766939255344 0.09091413860626846 3.778538266460836 81 92 124
2.408179592368138 0.7320280611443003 6.179772099504314 25 23 34
-0.2020521919831712 -0.45623200570738576 3.4875588139868428 128 110 124
1.2024050449718713 0.3480014531744763 4.900579040657419 156 165 198
0.801642786184065 0.16815454645321695 4.510477701263197 118 108 132
2.1130528669108117 -1.0829820860923642 6.000374027521642 118 104 127
-0.7268688000005833 0.6606873388165259 3.6485942053904488 114 132 178
0.9276724746076337 0.7417004508266 4.5251278732641484 131 138 156
1.1572626421633272 0.2673071030425594 4.8626391097614245 145 151 185
0.658687677479014 -1.1186886737485746 4.504034959000822 129 127 166
-0.13224048617487924 0.7967831365832658 3.4085274485660837 45 48 103
-0.19051663684913664 -0.5534601992630641 3.5121398444705823 124 105 124
-0.25561828335800707 0.11397894986627916 4.550268243264223 32 39 65
1.9219935120653806 0.7302613000215474 6.18733489852844 41 38 47
-0.20171106576898 -0.440424220469529 3.4862056290118306 127 110 128
0.699084365839023 0.44088882850284683 4.376716505993313 54 49 69
1.099175488812639 -0.0818739819012418 4.837437913594648 140 139 179
-0.2628430712458202 -0.2648623112664545 3.447554277666532 141 130 147
1.01255417645877 0.7264160435836633 4.632946809309544 48 54 70
0.8783014585770685 -0.26004017843204696 4.5977000916504025 172 183 215
0.6684038647866279 -0.20490971093872962 4.386708081164412 30 28 41
0.6825353908366819 -0.169949534379108 4.392399631586995 117 108 129
1.8430437103594377 -0.188024337687632 6.293723917058434 97 96 114
0.948474118689651 0.6968536749773202 4.585936057754451 115 125 135
-0.7196845984611059 0.768984602655016 3.626017774760259 39 54 95
2.5036202455379395 0.2633527842669063 6.2706192771117575 30 29 43
-0.7806214808399601 0.30554293604480365 3.7148206705292806 74 78 105
0.7796383610156067 0.7712991631228396 4.356198327359695 59 62 81
-0.21805320354799962 -0.5036407096711223 3.4880335753852285 59 55 72
-0.2488005056254258 -0.2458820380625616 3.4656845392823903 75 61 86
-0.12823322523948355 -0.3955115738660952 3.611177089424747 171 162 179
0.055975272292430836 -0.9066305532795561 3.8584652877556866 82 66 93
2.363471282161175 0.7120341129332539 6.2063358201404 48 39 66
1.530394927021727 -0.9482288751256986 5.3950544123067665 39 35 49
-0.7432571750757064 0.3037728896179285 3.7314463413425165 167 190 231
-0.8953246365108166 0.04629657640205678 3.6573060270427087 112 117 149
0.9918743502131181 0.685793102826637 4.632741600994685 62 69 95
0.9394992093214317 0.8254976337754643 4.516528356924846 32 37 56
-0.2310874732650527 -0.8187727061310609 3.4996830176476084 104 92 104
2.027469997329442 -1.19650870196256 5.897792127081958 52 68 91
0.8156721258513812 0.8164422604742398 4.387103200469751 108 110 133
2.621920385050069 0.2867610629772463 6.343691624580736 107 102 132
-0.13248041754414724 -0.5714166711604255 3.623683886307754 164 145 165
1.2488869476292905 0.6256423768886588 4.918018375786963 182 183 211
0.44797689926118195 -0.9576275204319116 4.230055985079168 138 121 140
1.9258294544447712 -0.7245784546768317 6.156392881854917 29 27 41
0.4173259246475703 -0.7770158757629676 4.411564133053953 73 71 84
-0.7551061038897803 0.5373200368029779 3.689076447117641 149 166 209
0.7150767690951981 0.6148455731614269 4.359569214708825 120 105 126
0.8321654451304508 -0.03145961167520401 4.556890173119184 119 102 121
-0.898745947719613 0.8832812554256465 3.4119179494983394 61 85 131
-0.17925866759492992 0.9063955269801748 3.3452582981626713 134 130 147
-0.04012288090013694 -0.8077030669029646 3.7490130569150506 66 52 75
0.6192137503559484 0.43132795345538594 4.468654259722047 54 52 66
0.6108220206570797 0.08138140399386944 4.519785083561533 57 49 62
2.502099626656456 0.2770510266879096 6.28215046506204 54 51 72
-0.18764905199136608 -0.3475029989565834 3.5001687893103006 127 123 137
-0.7641990999828339 0.02471261242188448 3.7359062627490807 80 93 125
0.7082772829868835 -0.7002492152765658 4.456460410963478 103 99 114
0.5461607634843124 -0.7862677905012102 4.349708478837979 128 125 146
2.618047706504482 0.5498551186958118 6.316086818398567 121 121 147
0.6778752698999254 -0.19184839804967233 4.386217068358863 118 109 128
2.596072116672694 0.06090785359478467 6.36903993421191 178 195 225
-0.24568541619779513 -0.35596415840214685 3.438647818641245 133 123 132
-0.1605390389203872 0.4851186737114046 3.466087242561062 56 57 77
0.7101069281707986 0.6918061195261415 4.314519981734581 94 93 101
2.103349141341784 -1.0180481050335473 6.022158033478842 94 90 113
0.955099185023862 0.5197931816621555 4.619679513100524 168 177 208
-0.6604541090457712 0.1281763959113089 3.8903023481237518 137 146 177
0.6479357863655766 -0.36516031745343586 4.4305954134870875 64 57 75
2.6483565906352267 0.3484795054603781 6.357760551145871 181 194 226
-0.7352599477054692 0.5648132117459288 3.6871702793907444 191 214 255
0.7654887041970488 -0.3272206356038237 4.480374145602711 122 124 139
0.8178688062621914 0.8613127442360382 4.388601328566668 106 119 138
0.7208886206328269 0.9109316976961243 4.273419176799964 61 58 75
1.2121662242351756 -0.11850544569968773 4.961723144562666 144 157 192
-0.129260766590531 -0.33926074485883145 3.5613448588349184 130 128 141
1.8094408864444314 -0.8640489422958637 5.936743513797124 90 89 107
-0.896418094616402 0.5772595713599035 3.4523737379807518 124 146 193
0.677977159286976 -0.2812319749714754 4.42907681693804 65 51 77
-0.1382418664067721 -0.4742707659831236 3.608901015627177 64 70 102
-0.7478563792815248 0.7384926451366834 3.6265174704343557 22 28 42
1.7834167794946625 -0.8618495027631994 5.919501380306849 89 85 100
-0.8908737795048632 0.6492413581869232 3.459127744727257 45 48 67
0.4012066721464519 -0.8965008462700297 4.2116857318643985 135 125 149
1.0671950689300718 -0.9671943430365468 4.909316341136708 197 210 244
1.1547223305049623 -0.2527162270217581 4.9163679640755 110 119 158
0.9803919495785594 0.9779902579500531 4.5420224574010435 56 62 86
2.446622816654624 0.985356328009714 6.094633382205504 38 44 60
-0.6294246260718737 -0.09452322781882459 3.947508183664062 136 146 173
-0.26810684756042896 -0.25982148950549677 3.4450466940911726 67 59 82
1.1787562979268305 0.12060847313459341 4.896611914384572 110 115 153
0.8922430405759672 0.5177185424859622 4.5578760505682405 55 47 94
0.3727935716440426 -0.46841377555924446 4.740079982564277 25 20 24
-0.22097523024259186 -0.3768157497336432 3.4619781239421754 103 101 115
0.3727935716440426 -0.46841377555924446 4.740079982564277 25 20 24
1.9385464715586842 0.023714971921512437 6.293453433505905 45 37 60
-0.19193795456173277 -0.24377175483669009 3.5223761047218716 140 131 152
-0.17772732108253683 0.827956886089849 3.353222104534847 96 81 122
-0.17425372825276408 -0.3415792022034622 3.546461318569832 49 50 54
-0.25621855926439746 -0.33857645140206044 3.4371242275260885 128 119 138
-0.19489600164038373 -0.3578423746205389 3.486418417838378 80 83 88
0.8603827001390342 0.6847690083498442 4.49765899169104 127 142 145
-0.26704058745900683 -0.2458596059820567 3.4530047392283834 56 44 64
1.1623481029140195 -0.26350093806874053 4.930471551269792 152 163 195
-0.18947523525144516 -0.25535024808562484 3.5214653252964987 146 137 156
-0.18150635279267274 0.8423615442459417 3.3504297161160204 92 79 107
0.8320416727110923 0.08864886944612661 4.544592681313243 122 105 124
0.7671785350459364 0.6293667929102856 4.410058235940551 137 135 157
0.5241577723836893 0.944992955174235 4.299257231497134 84 93 126
-0.2047778942719567 0.8737167475231532 3.3287221666830598 95 74 89
-0.7385433162509331 0.546591917444197 3.7134331571829526 81 100 132
-0.7090451967869327 0.8459850951700727 3.6448963782625285 49 61 87
0.8216698847960314 0.7763353094574672 4.399696764694701 58 63 82
-0.1583222388763744 -0.34365477568895125 3.5302892484530184 120 116 130
2.526806353631754 0.4716040039445127 6.268038630519566 109 100 129
-0.19193795456173277 -0.24377175483669009 3.5223761047218716 140 131 152
1.0008592550208528 0.9792665274520461 4.553069677558138 58 58 84
0.5107215004282267 -0.7724148454555727 4.324432308626134 57 54 63
2.161567529466916 -1.2013268974147187 6.019978670822257 42 53 75
0.7384851039974758 -0.22904488520743746 4.461722202320799 120 127 153
1.7101729767552283 -0.21895577626888482 6.146227964498612 102 99 126
2.3723951376726853 0.7347445424065477 6.197607683481247 31 23 38
-0.21357791474353566 -0.3979731199222677 3.4704174889938124 30 35 39
1.1044322279760304 -0.16669584015485028 4.856260210710372 142 150 186
2.2141335576331844 -0.09023256130108218 6.218482092778383 78 77 93
1.6442565744478888 -0.20756918864019414 6.097478877373475 34 31 48
-0.90934147538718 0.5435846243492466 3.4531528706782435 42 50 52
0.6173787388409054 -0.006956130510952556 4.513475072115795 54 44 55
1.9568008113193553 -1.1518859911212525 5.849926704561472 76 71 103
-0.1637160093785467 0.8110205208476157 3.3710945668178005 35 44 73
0.0993687090741795 0.41056028888883045 4.730262148863138 49 46 65
-0.6477466685733526 0.41179442506630715 3.872760104983792 110 104 132
-0.22097523024259186 -0.3768157497336432 3.4619781239421754 103 101 115
-0.12912482177775852 0.7638717999259983 3.4133579154311047 65 60 118
1.1044322279760304 -0.16669584015485028 4.856260210710372 142 150 186
1.8705064275729057 -1.1612308226149266 5.735880308824836 111 100 130
-0.8925663003625353 0.705487454200092 3.4482631054300064 56 60 95
-0.21660288343291287 -0.35208538797498456 3.469500925118407 140 129 145
-0.2349735209460281 -0.23477877257793114 3.4870686493774867 73 64 91
2.482547393852144 0.3540652551108571 6.251706330800828 96 94 118
0.7864540833365476 0.8219892290261401 4.3564762710241975 117 119 140
0.8221187492951954 0.1308308961834151 4.5241525761927 158 163 192
0.6872261228207671 -0.2981623366645429 4.439991742026856 114 102 122
2.573899533330112 0.24134979473842408 6.298429112790427 117 124 150
0.8794817623445865 0.9008699843277485 4.443868632457543 35 39 51
0.18991960416290918 -0.9614147928587238 4.004312202619535 61 44 63
-0.26897234265583725 0.49543208741979217 3.3497844079478143 91 94 113
-0.1637160093785467 0.8110205208476157 3.3710945668178005 35 44 73
0.6696203909783662 -0.27579641218307244 4.422594954208669 124 109 132
-0.15045071789465572 -0.2657032443891778 3.5827966766408976 137 128 155
1.612491941236748 -0.2145345402537742 6.066603344327992 43 38 58
-0.20185181620706905 -0.37687898841705175 3.483237935293293 100 99 117
0.668820383339249 0.6947829665604737 4.258545413103728 117 141 177
-0.2212994145088869 0.1689031760618769 4.597563398139422 27 33 59
-0.04930145205500149 0.7423042289257388 4.68951695813611 38 34 49
1.7048567751590182 -0.874757566924235 5.826303991762554 109 104 127
1.0305471606845857 0.92656757047955 4.593774814872752 91 95 122
-0.8876722724157853 0.6826218090578169 3.5394888660726775 102 94 118
-0.1673323632936575 -0.6862047018748154 3.5518649441872 127 108 128
-0.21869495811224768 -0.44057152289971246 3.481976450337476 60 51 68
0.6261236999520853 0.14911899150837468 4.4861081565878855 82 87 109
-0.15825547205825435 -0.7189289453414368 3.5654945317509608 129 112 130
0.7480981921988294 0.8732350980810036 4.304737647054515 76 81 110
2.5473056524519317 0.26525452910324526 6.287984254790318 28 28 40
0.8794817623445865 0.9008699843277485 4.443868632457543 35 39 51
-0.7578578937580546 0.6388270582488712 3.6569547315681072 29 27 41
-0.7479383846507881 0.46276212007127265 3.7035982648302177 100 109 164
0.48650248801404744 -0.999643744023241 4.270629792426192 106 100 112
-0.25621855926439746 -0.33857645140206044 3.4371242275260885 128 119 138
-0.13979198110248564 -0.4399633125927835 3.6041707588383423 63 64 95
0.8441588361142707 0.9518796687374127 4.403185959910533 51 58 77
0.6883762194906163 1.0112571576068727 4.266240975282009 43 45 60
-0.6294246260718737 -0.09452322781882459 3.947508183664062 136 146 173
2.173589380209501 0.7293409118550406 6.19751718057456 40 33 40
2.0183731907745837 0.9113211166855675 6.1751598646545345 35 32 43
-0.2014804891834554 -0.2565356748232937 3.5088311444288287 149 141 164
1.1416951196623712 -0.5062635021985648 4.93772753798266 166 175 208
1.5461936130351055 0.22577772019942607 5.939836043310963 57 56 114
2.0092257904914765 -1.086254354524594 5.906874046169436 44 37 53
-0.24453346461876277 -0.5675734008790017 3.485444946163801 95 89 117
-0.13519238253904414 -0.2311399407741085 3.5816766770352744 88 75 103
1.8500789975010816 -0.19651402496801404 6.292797466439941 57 47 72
0.17914347987264215 0.9223651912179686 3.916951873283923 169 176 195
-0.24684303236706728 0.1670411257594265 4.569310272214346 24 34 59
2.298588579629973 0.7291621846080062 6.191944405860475 40 32 45
2.6047301107533682 -0.2989198176303901 6.389691341699724 48 46 68
-0.240445529088866 0.30725054547005465 4.534093834413152 23 27 39
-0.24203748753027757 -0.3653837302670389 3.4373076308480743 87 86 92
2.553728408415424 -0.016550592435472442 6.306478160614371 93 90 119
-0.8765307663291163 0.9041247125397578 3.5239564564129373 74 80 104
-0.18787888005013975 -0.695659498766832 3.5542967750328454 62 55 73
1.3285476651559558 -0.9257879405061304 5.186660504777679 151 165 204
0.4662410614298949 0.9598021153529824 4.201966833099155 77 87 114
1.654130429579011 -0.22741636924068856 6.092514127782103 100 102 127
-0.18787888005013975 -0.695659498766832 3.5542967750328454 62 55 73
0.44350620976823474 0.4729611749571595 4.59603052905454 91 95 120
-0.7178303677167022 0.6600234962835098 3.654162742651367 105 139 184
1.7986433177351857 -1.1971911231151646 5.660474191137463 33 33 43
2.590821880884797 0.6189211558607761 6.271105032161937 92 105 157
0.12229925273027903 -0.9414203291016031 3.931344054153731 64 56 80
0.7538501213942819 0.8886324763291947 4.310313600794684 57 59 82
0.07256857346989494 0.8481141941791717 3.966276304674309 96 103 132
0.8420448803353048 0.7919250408636509 4.41921810698275 58 63 82
1.7986433177351857 -1.1971911231151646 5.660474191137463 33 33 43
2.45106137927876 -0.5516431368774838 6.310422960882337 38 32 46
1.1735739113239942 -0.3933091902386295 4.950807360102512 97 111 138
2.4696962220707497 -0.37368703186203517 6.322394777472803 90 91 112
1.1098103289390768 0.9580823483746699 4.670184556847631 41 43 64
0.9510706406291372 0.84070199092509 4.522062883056953 44 46 69
0.8580857204984935 -0.25973495170046107 4.570247060402613 68 69 87
-0.15809149343056975 -0.4739627648653351 3.5813526847590023 169 171 192
1.169070472946515 -0.7353662981365218 5.000692614382288 142 146 184
1.6084017577103873 -1.1535040547931312 5.428992061303973 117 117 141
2.694430772348819 1.016928267275945 6.303254803857261 111 119 142
2.0653200236144134 -0.09661832028126201 6.223206588602633 39 36 45
1.2275529821518107 -0.15538780102555189 4.971249367933865 47 50 69
1.6314919105343018 -0.21737676789617993 6.0801204325078055 106 103 124
2.0961275984828793 -0.11574169734427235 6.193896538243189 112 108 133
0.9487887613789212 0.5427068580521374 4.610098229348255 131 132 178
2.504383476952021 -0.21973378494353837 6.327846342733912 42 36 50
2.496718708923582 -0.13388549957893578 6.951663048862902 101 91 115
-0.22820831251219448 -0.345520499772077 3.474099421668075 45 35 44
1.2327152425179322 -0.8690070347988336 5.031599798348154 193 203 238
1.2839262630133876 -0.7772903189274322 5.105382453794885 27 32 51
2.9713892610295685 0.10791423451708139 6.768766749724478 178 189 219
-0.16267897649286295 -0.4450225879674942 3.5772348284228164 170 171 191
1.5688850807926973 -0.8168726104712771 5.67965847948104 107 101 127
-0.23966514085205518 -0.3582600846894155 3.4485899418051176 24 23 31
-0.711849290112837 0.9139615725893573 3.4655660033479996 78 85 104
1.7085090410960886 -0.4725204215311547 6.178929463526167 103 103 127
2.118512250741165 -1.0326303093618163 6.019894179403471 35 31 46
1.4791730073767202 0.7761573487741259 5.28412394013301 38 35 62
0.09961008015671813 -0.9315823223569083 3.9060032397163207 72 59 77
0.41980135529805923 0.5684104807531593 4.441094319918862 28 37 66
-0.05475529189274887 -0.7842529270271481 3.7304153591595033 69 58 90
-0.18470029902764404 -0.2377322420934482 3.531009291391814 80 70 97
2.1011647675427225 0.9089260048930454 6.112600768213753 94 90 115
1.5116030912317273 -1.0186704697261713 5.3690413016882985 138 127 157
-0.24024741312772913 0.32645824598465173 4.563586349208141 130 131 133
1.6258457331967981 -1.1566916359749038 5.473282111225597 48 54 76
0.8420448803353048 0.7919250408636509 4.41921810698275 58 63 82
2.6602583567870464 -0.2820519086668589 6.418857977666728 161 175 204
1.6595428441484408 -1.1786165674155389 5.515431521229639 46 53 72
-0.19663965781287676 -0.34007684261307625 3.5008580669307774 37 34 43
0.630160901038362 -0.27138501735344445 4.423574806174697 42 40 53
1.1686868600529887 -0.2508952480481328 4.928704532855753 91 99 135
2.498637170218215 0.7187364922700215 6.194051758808756 69 77 100
1.5937165788569303 -0.22670296198995293 6.027063003337886 106 111 140
1.4680667984177087 -1.141943781201644 5.338707198709127 81 94 126
2.147097765133199 0.7098863934297935 6.208459517410088 84 85 105
0.7683962953244196 0.9319063586334587 4.321118320018119 111 117 133
-0.1389815143033718 0.5063627337539993 3.4999131839564233 90 95 117
1.6583531022202895 -1.1049628366847237 5.534461747574675 75 63 99
1.6953285312762172 -0.2185006199702705 6.135423830100768 57 47 74
1.1869363154922785 -0.5218003369393037 4.992353561782793 146 157 189
-0.13677516628877065 0.8148192780424304 3.3999786890808785 38 49 81
-0.28239123699730084 0.30427620333582633 4.5006470663095905 9 11 23
0.4736576291195213 -0.944390433239243 4.235869674610791 36 30 32
0.8048201196999133 -0.27334373506775916 4.506227121917526 86 87 105
-0.7351633496308052 -0.6284598589310887 3.8607653084703353 38 39 59
2.576943589460865 0.5614134032768451 6.253931947862457 84 93 136
0.06218157919663263 0.9498438901897007 3.6390706116901343 156 162 194
0.011499836144837803 0.940803758816194 3.5868013413900464 149 158 187
-0.19394778548580055 -0.2768216019930904 3.5209344234804774 96 83 109
-0.3279656643696109 0.8643964252953611 3.2909834395764443 40 45 64
1.58765733941276 -0.8367821061080032 5.6989344365854535 106 97 128
1.4680667984177087 -1.141943781201644 5.338707198709127 81 94 126
1.58765733941276 -0.8367821061080032 5.6989344365854535 106 97 128
0.8013206156919613 0.352008824928686 4.482708629346451 138 139 169
2.028318404286711 0.6540805890256758 6.216652859691168 90 87 114
1.146113342665895 0.8949225600640638 4.714038084310685 33 40 56
1.5514507009490894 -0.8051143576537798 5.726575578462152 95 86 113
0.8385968666688004 0.8841246250273632 4.403560801770726 46 49 66
0.0740976279116403 0.9492863967360166 3.6509956702487516 141 152 174
1.551862529326688 0.8692340223852876 5.007505951099774 142 151 190
-0.7483942749117816 0.531128184337186 3.6941412846249415 102 118 169
0.7534565237067669 -0.8219505255552527 4.5665115501729465 137 140 171
0.687173221267846 -0.2726135844219933 4.43753207027017 118 103 122
2.694430772348819 1.016928267275945 6.303254803857261 111 119 142
2.364799303655823 0.7237762314231903 6.2020286434969885 88 76 98
-0.27379430894948303 0.3107253195529208 4.516590025397525 15 22 40
-0.18416479613101236 -0.41774616586454805 3.499830163396193 74 66 90
-0.4387635373081534 0.5273682025189301 3.498781109711299 92 104 130
1.6404528813199253 -1.0614602673394056 5.519634622541793 75 66 97
0.7887742204311482 0.8413873301148498 4.361196674682984 118 115 136
0.7786732347087288 0.5568597384793168 4.433433725475636 132 136 165
-0.2023386923774395 -0.4064450470035942 3.480230556348399 119 105 122
0.8354813437151672 0.9594075930079545 4.394139195263255 88 98 123
-0.24213659269233886 -0.6108916547630879 3.4841641524582614 113 95 119
2.378545960639929 -0.637604770174359 6.250588484050668 46 44 58
-0.7367977150775267 0.47273636604741176 3.721737312925341 77 91 118
1.6076480605175 -0.8404554124640167 5.723150925538431 103 94 123
2.103559905265524 0.8186699594959388 6.13401371400895 102 84 110
0.7080374626880642 -0.2144025789778239 4.4229982258259986 118 109 130
-0.11263074791556545 -0.32876225883121796 3.596770264425307 41 33 44
-0.13567727549569103 -0.509500956645658 3.6149986904985383 57 62 94
-0.7335618758938857 -0.5550647546825406 3.8522158107611904 31 34 51
1.7708794831692263 -0.7828751163627009 6.032456059811039 112 108 135
-0.12951733557000547 -0.5549316414306441 3.621692907035936 110 100 127
-0.1867319701770795 0.9150206628468243 3.2998935012311117 126 121 161
2.3375582436630458 -0.08971450887917524 6.220832545628825 85 82 101
0.4581496065679324 -1.030709900139333 4.259202227422991 106 93 119
-0.0636430579215027 -0.7625655585857158 3.7150950470347057 138 123 144
2.020141413423755 1.1056295842059696 5.062273936303241 138 147 188
0.3293678126452681 0.9862460064360203 3.9163084806877984 144 155 183
0.6122383636851302 0.11741028279304196 4.513488786127695 52 46 60
0.7645994042185676 0.7779088423201079 4.33880164833995 55 61 73
1.8913098871833527 -1.1095244709817964 5.787380981735196 37 33 48
-0.1936675278495042 -0.28797631888072545 3.5229315328853046 102 96 122
-0.14844761978474588 0.8470912106890244 3.3838615401730046 237 239 254
2.097128447767962 0.7750382735606859 6.143059612000658 101 87 113
2.5050209868713615 0.46937969528419904 6.237251659985663 111 106 128
-0.14054096325609675 -0.23341520741558275 3.57660938887677 75 65 90
2.618047706504482 0.5498551186958118 6.316086818398567 121 121 147
0.6799186655462656 -0.15147485940557567 4.415023282482171 34 31 42
1.8221351945065483 -0.20052834717792337 6.264176250498711 59 49 74
0.8002551308195381 1.0114593663499334 4.353775176666875 58 58 82
0.8837337713189913 0.9977249357379266 4.435660869588064 50 52 73
0.7882158894126166 0.7918887636289096 4.359871224676623 107 108 129
2.489343956537 0.1616943913793744 6.267652930507577 39 33 45
-0.19556186354360322 -0.6601461753711858 3.541520979485579 65 57 80
0.7777271135346319 -0.362250520340507 4.49355418794265 119 122 141
2.293960977187391 0.6687860267680958 6.216965843723485 30 28 42
0.7387278243521005 0.9464545349278791 4.287958095987186 159 160 180
0.558649689206918 -0.04197338482757562 4.576439269077725 45 39 53
-0.7600626682467632 -0.8922488645149724 3.8689514705794052 34 44 71
0.7816986669474384 -0.27827402627050996 4.489749717700229 82 89 99
1.9489726888084302 -1.1014559331391494 5.846776689628384 38 30 51
2.5061409118663938 0.8875745238102932 6.184220485978792 140 131 152
1.895026502377508 -1.1581796862395168 5.787364006007518 69 62 96
2.097128447767962 0.7750382735606859 6.143059612000658 101 87 113
1.5360440353696794 -1.1754197751913726 5.426583727612563 115 130 159
1.62022814986376 -0.8490428029924104 5.736821152652822 143 139 162
2.460981109404557 0.7962265715187683 6.163700627653209 41 35 49
2.55002385565289 0.915305409370024 6.090490336494115 52 45 76
1.659754495286025 -0.8537229718369321 5.794932439051983 112 101 118
2.55710967017667 0.6252992364100448 6.235216546637854 126 144 164
0.624550825371701 -0.4223622568776524 4.4406222508787305 41 39 53
1.3454040527849505 0.9550490885691197 4.918994630303831 34 42 53
0.790729687192029 0.8033276643919782 4.363685423818505 50 52 75
-0.20418235264323548 0.5110484593988739 3.4202304779905885 109 105 132
0.7534565237067669 -0.8219505255552527 4.5665115501729465 137 140 171
0.9785468831333107 0.8609143667429433 4.542749640576916 98 101 120
2.62783910010729 1.0738035003254525 6.075927971965628 133 145 171
1.4827838073405428 -0.959082285478788 5.347822353047482 150 129 160
1.7101729767552283 -0.21895577626888482 6.146227964498612 102 99 126
-0.11433589274741385 0.8950280437592727 3.4121413785070662 97 76 95
1.7617533604849684 -0.3332999029657799 6.247297822084759 49 50 70
2.35265971872188 -0.1279221804210342 6.215035606159252 136 132 157
-0.22753198457486826 -0.12274896734527695 3.5758211533940263 166 175 208
0.7294176504353567 -0.11355353730173465 4.444003048149884 116 111 134
0.7208886206328269 0.9109316976961243 4.273419176799964 61 58 75
0.8385968666688004 0.8841246250273632 4.403560801770726 46 49 66
1.7907689084582756 -0.2796105355332247 6.2420449616454 37 36 52
0.6361879295540057 -0.8953435813095763 4.453750803684522 132 136 171
-0.4387635373081534 0.5273682025189301 3.498781109711299 92 104 130
1.202918772955208 0.887495220569599 4.702585523970362 26 33 59
0.7991892361465249 0.7742436872137087 4.375013995876446 64 68 95
0.8002551308195381 1.0114593663499334 4.353775176666875 58 58 82
0.13511628279139687 0.9253106027737331 3.864241996002838 166 172 196
0.4709611121807316 0.9276911113190537 4.232586027299968 103 120 150
0.7645994042185676 0.7779088423201079 4.33880164833995 55 61 73
1.870067912365175 -0.18447813012660033 6.323773339231952 79 81 96
0.7516151898996205 -0.2620377237980501 4.477747943566346 25 24 29
0.14346317606058123 -0.9505134843192952 3.9550308545835766 64 51 71
0.8221187492951954 0.1308308961834151 4.5241525761927 158 163 192
0.6041013951544152 0.6667164501980004 4.315929126152047 12 23 43
0.8986653259422994 0.8255667620379898 4.470187872281336 50 52 73
-0.21450868206656828 0.43674137903038585 3.4314331043285144 121 123 146
-0.2130379183291738 -0.685403902397192 3.5470858242054137 119 123 150
-0.26287051011069557 -0.36012720855643543 3.4345271790239336 35 30 36
-0.19437959794714246 -0.26478669840916447 3.5204294734468724 90 80 107
2.5541364206006842 -0.09227692373060901 6.314743529869054 89 86 113
2.373905265802026 0.813297631439372 6.234551799906172 75 61 78
1.294062610389211 0.9272504172924149 4.871280152940821 109 110 140
-0.09288661850651085 -0.3368326964192556 3.5962297717102825 29 27 40
2.093655647098253 0.5705136159838716 5.649907737230079 33 33 45
-0.8899483984728671 0.28990259951961767 3.425231881708379 46 59 91
-0.06988342857784118 -0.5582068415044952 3.626437405143038 21 20 25
2.5903239437409455 0.8929561333201386 6.116476932905347 88 94 128
1.5350789908550089 -0.9203367651816187 5.406634071280742 149 144 167
2.373905265802026 0.813297631439372 6.234551799906172 75 61 78
2.7758889502049446 1.107771267315629 6.285792592180306 105 129 153
0.25719163330476263 -0.442953090200876 4.845177747078229 25 22 29
-0.1517350139703922 -0.21673555049781515 3.576453636128949 72 64 88
1.5732965200750997 -1.11906910272698 5.417425773823767 56 57 78
-0.8916987158393224 0.5220929723792843 3.4380287449505516 75 87 127
0.0554348006358324 0.9103605387440088 3.6391228883353604 158 173 202
-0.03892268542315339 0.8980003200794415 3.5388994303281747 148 159 191
-0.13251917577322422 -0.5146478470215737 3.6151762120438224 169 164 187
-0.4040755415027256 -0.33796534982860527 3.604523653578236 70 68 81
-0.2712711841730099 0.5387334979245639 3.3142728298396205 91 86 92
0.4561501862733923 -1.0697649961118565 4.244818467669588 104 96 120
-0.13460944538328432 -0.49186605777307674 3.6092489334589626 174 175 196
1.2055714904473798 0.7047781013305501 4.729164121961064 30 38 75
1.7907689084582756 -0.2796105355332247 6.2420449616454 37 36 52
2.6480142823316157 0.5455404091071109 6.3274678751463025 177 190 224
1.1946534496878254 0.7183266143033932 4.708894258643466 70 93 135
1.586696315327737 -0.8225285985116925 5.706189534892424 89 78 108
1.605848205098041 -0.8558506421030148 5.71815162069502 103 94 125
0.3789116733648219 0.9938750294974612 3.9644145008189056 153 164 194
-0.3503839524393353 -0.5704180275211371 3.5378976979818217 12 19 38
0.4873674123997632 0.9634651219622672 4.08258840025623 146 162 198
-0.03892268542315339 0.8980003200794415 3.5388994303281747 148 159 191
1.6546343437311357 -1.0648209416318926 5.533848701511836 129 121 145
1.2777317445731564 -0.49870206634018877 5.017000426755156 70 75 105
2.562496418158831 0.9221401816265185 6.089354465633061 83 109 144
-0.21825298752128078 0.9095462172397416 3.2785401482903045 129 130 161
1.4372039517943018 -0.9096769353741501 5.290513650935575 136 123 149
-0.1239109008541139 -0.5254469406349473 3.6430850958338796 149 135 160
1.4147651935607146 -0.7763365805968341 5.254458564379554 51 44 62
2.296783971591041 0.7096149347608951 6.221295647775271 32 33 51
0.29279613632048374 1.2562086186137131 4.080939845090398 77 81 118
0.14580943439021457 0.9632959923189526 3.725612095075247 144 155 185
0.33164163464917135 0.9628449862253242 3.9192094158755726 88 95 123
1.4341006477509228 1.0619690620752207 4.395372140610621 51 57 81
2.7796322333868835 0.9562209804889187 6.313749686412617 91 111 136
0.47498866398549694 -1.0290786066594946 4.2621490420903365 175 181 217
1.2325125070060552 0.15876257796601204 4.918415226661045 40 47 65
1.8777064580607707 -0.19160555861249173 6.320244270037341 55 47 71
1.1279410774069698 1.0382911500264804 4.690341568220727 51 50 66
1.3171355051313658 0.932049692371982 4.8927935783911085 118 118 142
1.4315443264895453 0.9026161885340851 3.6249535339451855 75 89 92
